1.895300 -0.76523  0.23060
1.891027 -0.77174  0.23121
1.886839 -0.77811  0.23223
1.882775 -0.78430  0.23365
1.878876 -0.79024  0.23545
1.875181 -0.79586  0.23762
1.871727 -0.80112  0.24015
1.868549 -0.80596  0.24300
1.865680 -0.81032  0.24615
1.863149 -0.81418  0.24957
1.860983 -0.81747  0.25322
1.859205 -0.82018  0.25708
1.857834 -0.82227  0.26109
1.856883 -0.82371  0.26523
1.856364 -0.82450  0.26943
1.856260 -0.82466  0.27367
1.856260 -0.82466  0.27791
1.856260 -0.82466  0.28215
1.856260 -0.82466  0.28639
1.856260 -0.82466  0.29063
1.856260 -0.82466  0.29488
1.856260 -0.82466  0.29912
1.856260 -0.82466  0.30336
1.856260 -0.82466  0.30760
1.856260 -0.82466  0.31184
1.856260 -0.82466  0.31608
1.856260 -0.82466  0.32032
1.856260 -0.82466  0.32456
1.856260 -0.82466  0.32880
1.856260 -0.82466  0.33304
1.856260 -0.82466  0.33728
1.856260 -0.82466  0.34152
1.856260 -0.82466  0.34576
1.856260 -0.82466  0.35000
1.856260 -0.82466  0.35424
1.856260 -0.82466  0.35848
1.856260 -0.82466  0.36272
1.856260 -0.82466  0.36697
1.856260 -0.82466  0.37121
1.856260 -0.82466  0.37545
1.856260 -0.82466  0.37969
1.856260 -0.82466  0.38393
1.856260 -0.82466  0.38817
1.856260 -0.82466  0.39241
1.856260 -0.82466  0.39665
1.856260 -0.82466  0.40089
1.856260 -0.82466  0.40513
1.856260 -0.82466  0.40937
1.856260 -0.82466  0.41361
1.856260 -0.82466  0.41785
1.856260 -0.82466  0.42209
1.856260 -0.82466  0.42633
1.856260 -0.82466  0.43057
1.856260 -0.82466  0.43481
1.856260 -0.82466  0.43906
1.856260 -0.82466  0.44330
1.856260 -0.82466  0.44754
1.856260 -0.82466  0.45178
1.856260 -0.82466  0.45602
1.856260 -0.82466  0.46026
1.856260 -0.82466  0.46450
1.856260 -0.82466  0.46874
1.856260 -0.82466  0.47298
1.856260 -0.82466  0.47722
1.856260 -0.82466  0.48146
1.856260 -0.82466  0.48570
1.856260 -0.82466  0.48994
1.856260 -0.82466  0.49418
1.856260 -0.82466  0.49842
1.856260 -0.82466  0.50266
1.856260 -0.82466  0.50690
1.856260 -0.82466  0.51115
1.856260 -0.82466  0.51539
1.856260 -0.82466  0.51963
1.856260 -0.82466  0.52387
1.856260 -0.82466  0.52811
1.856260 -0.82466  0.53235
1.856260 -0.82466  0.53659
1.856260 -0.82466  0.54083
1.856260 -0.82466  0.54507
1.856260 -0.82466  0.54931
1.856260 -0.82466  0.55355
1.856260 -0.82466  0.55779
1.856260 -0.82466  0.56203
1.856260 -0.82466  0.56627
1.856260 -0.82466  0.57051
1.856260 -0.82466  0.57475
1.856260 -0.82466  0.57899
1.856260 -0.82466  0.58324
1.856260 -0.82466  0.58748
1.856260 -0.82466  0.59172
1.856260 -0.82466  0.59596
1.856260 -0.82466  0.60020
1.856260 -0.82466  0.60444
1.856260 -0.82466  0.60868
1.856260 -0.82466  0.61292
1.856260 -0.82466  0.61716
1.856260 -0.82466  0.62140
1.856260 -0.82466  0.62564
1.856260 -0.82466  0.62988
1.856260 -0.82466  0.63412
1.856260 -0.82466  0.63836
1.856260 -0.82466  0.64260
1.856260 -0.82466  0.64684
1.856260 -0.82466  0.65108
1.856260 -0.82466  0.65532
1.856260 -0.82466  0.65957
1.856260 -0.82466  0.66381
1.856260 -0.82466  0.66805
1.856260 -0.82466  0.67229
1.856260 -0.82466  0.67653
1.856260 -0.82466  0.68077
1.856260 -0.82466  0.68501
1.856260 -0.82466  0.68925
1.856260 -0.82466  0.69349
1.856260 -0.82466  0.69773
1.856260 -0.82466  0.70197
1.856260 -0.82466  0.70621
1.856260 -0.82466  0.71045
1.856260 -0.82466  0.71469
1.856260 -0.82466  0.71893
1.856260 -0.82466  0.72317
1.856260 -0.82466  0.72741
1.856260 -0.82466  0.73166
1.856260 -0.82466  0.73590
1.856260 -0.82466  0.74014
1.856260 -0.82466  0.74438
1.856260 -0.82466  0.74862
1.856260 -0.82466  0.75286
1.856260 -0.82466  0.75710
1.856260 -0.82466  0.76134
1.856260 -0.82466  0.76558
1.856260 -0.82466  0.76982
1.856260 -0.82466  0.77406
1.856260 -0.82466  0.77830
1.856260 -0.82466  0.78254
1.856260 -0.82466  0.78678
1.856260 -0.82466  0.79102
1.856260 -0.82466  0.79526
1.856260 -0.82466  0.79950
1.856260 -0.82466  0.80375
1.856260 -0.82466  0.80799
1.856260 -0.82466  0.81223
1.856260 -0.82466  0.81647
1.856260 -0.82466  0.82071
1.856260 -0.82466  0.82495
1.856260 -0.82466  0.82919
1.856260 -0.82466  0.83343
1.856260 -0.82466  0.83767
1.856260 -0.82466  0.84191
1.856260 -0.82466  0.84615
1.856260 -0.82466  0.85039
1.856260 -0.82466  0.85463
1.856260 -0.82466  0.85887
1.856260 -0.82466  0.86311
1.856260 -0.82466  0.86735
1.856260 -0.82466  0.87159
1.856260 -0.82466  0.87584
1.856260 -0.82466  0.88008
1.856260 -0.82466  0.88432
1.856260 -0.82466  0.88856
1.856260 -0.82466  0.89280
1.856260 -0.82466  0.89704
1.856260 -0.82466  0.90128
1.856260 -0.82466  0.90552
1.856456 -0.82436  0.90975
1.857087 -0.82340  0.91395
1.858148 -0.82179  0.91805
1.859626 -0.81954  0.92203
1.861506 -0.81668  0.92584
1.863769 -0.81323  0.92944
1.866389 -0.80924  0.93279
1.869341 -0.80475  0.93587
1.872593 -0.79980  0.93863
1.876113 -0.79444  0.94107
1.879865 -0.78873  0.94315
1.883810 -0.78272  0.94485
1.887910 -0.77648  0.94616
1.892124 -0.77007  0.94708
1.896411 -0.76354  0.94759
1.900730 -0.75697  0.94771
1.905052 -0.75039  0.94772
1.909374 -0.74381  0.94772
1.913696 -0.73723  0.94773
1.918018 -0.73065  0.94773
1.922339 -0.72407  0.94774
1.926661 -0.71749  0.94775
1.930983 -0.71091  0.94775
1.935305 -0.70434  0.94776
1.939627 -0.69776  0.94776
1.943949 -0.69118  0.94777
1.948271 -0.68460  0.94777
1.952593 -0.67802  0.94778
1.956913 -0.67144  0.94773
1.961211 -0.66490  0.94732
1.965446 -0.65845  0.94652
1.969577 -0.65216  0.94535
1.973565 -0.64609  0.94382
1.977374 -0.64030  0.94194
1.980966 -0.63483  0.93973
1.984309 -0.62974  0.93722
1.987370 -0.62508  0.93442
1.990123 -0.62089  0.93137
1.992540 -0.61721  0.92810
1.994599 -0.61407  0.92463
1.996281 -0.61151  0.92100
1.997570 -0.60955  0.91723
1.998454 -0.60821  0.91338
1.998925 -0.60749  0.90947
1.999008 -0.60736  0.90553
1.999008 -0.60736  0.90159
1.999008 -0.60736  0.89765
1.999008 -0.60736  0.89372
1.999008 -0.60736  0.88978
1.999008 -0.60736  0.88584
1.999008 -0.60736  0.88190
1.999008 -0.60736  0.87797
1.999008 -0.60736  0.87403
1.999008 -0.60736  0.87009
1.999008 -0.60736  0.86615
1.999008 -0.60736  0.86222
1.999008 -0.60736  0.85828
1.999008 -0.60736  0.85434
1.999008 -0.60736  0.85040
1.999008 -0.60736  0.84646
1.999008 -0.60736  0.84253
1.999008 -0.60736  0.83859
1.999008 -0.60736  0.83465
1.999008 -0.60736  0.83071
1.999008 -0.60736  0.82678
1.999008 -0.60736  0.82284
1.999008 -0.60736  0.81890
1.999008 -0.60736  0.81496
1.999008 -0.60736  0.81102
1.999008 -0.60736  0.80709
1.999008 -0.60736  0.80315
1.999008 -0.60736  0.79921
1.999008 -0.60736  0.79527
1.999008 -0.60736  0.79134
1.999008 -0.60736  0.78740
1.999008 -0.60736  0.78346
1.999008 -0.60736  0.77952
1.999008 -0.60736  0.77558
1.999008 -0.60736  0.77165
1.999008 -0.60736  0.76771
1.999008 -0.60736  0.76377
1.999008 -0.60736  0.75983
1.999008 -0.60736  0.75590
1.999008 -0.60736  0.75196
1.999008 -0.60736  0.74802
1.999008 -0.60736  0.74408
1.999008 -0.60736  0.74014
1.999008 -0.60736  0.73621
1.999008 -0.60736  0.73227
1.999008 -0.60736  0.72833
1.999008 -0.60736  0.72439
1.999008 -0.60736  0.72046
1.999008 -0.60736  0.71652
1.999008 -0.60736  0.71258
1.999008 -0.60736  0.70864
1.999008 -0.60736  0.70470
1.999008 -0.60736  0.70077
1.999008 -0.60736  0.69683
1.999008 -0.60736  0.69289
1.999008 -0.60736  0.68895
1.999008 -0.60736  0.68502
1.999008 -0.60736  0.68108
1.999008 -0.60736  0.67714
1.999008 -0.60736  0.67320
1.999008 -0.60736  0.66926
1.999008 -0.60736  0.66533
1.999008 -0.60736  0.66139
1.999008 -0.60736  0.65745
1.999008 -0.60736  0.65351
1.999008 -0.60736  0.64958
1.999008 -0.60736  0.64564
1.999008 -0.60736  0.64170
1.999008 -0.60736  0.63776
1.999008 -0.60736  0.63382
1.999008 -0.60736  0.62989
1.999008 -0.60736  0.62595
1.999008 -0.60736  0.62201
1.999008 -0.60736  0.61807
1.999008 -0.60736  0.61414
1.999008 -0.60736  0.61020
1.999008 -0.60736  0.60626
1.999008 -0.60736  0.60232
1.999008 -0.60736  0.59838
1.999008 -0.60736  0.59445
1.999008 -0.60736  0.59051
1.999008 -0.60736  0.58657
1.999008 -0.60736  0.58263
1.999008 -0.60736  0.57870
1.999008 -0.60736  0.57476
1.999008 -0.60736  0.57082
1.999008 -0.60736  0.56688
1.999008 -0.60736  0.56294
1.999008 -0.60736  0.55901
1.999008 -0.60736  0.55507
1.999008 -0.60736  0.55113
1.999008 -0.60736  0.54719
1.999008 -0.60736  0.54326
1.999008 -0.60736  0.53932
1.999008 -0.60736  0.53538
1.999008 -0.60736  0.53144
1.999008 -0.60736  0.52751
1.999008 -0.60736  0.52357
1.999008 -0.60736  0.51963
1.999008 -0.60736  0.51569
1.999008 -0.60736  0.51175
1.999008 -0.60736  0.50782
1.999008 -0.60736  0.50388
1.999008 -0.60736  0.49994
1.999008 -0.60736  0.49600
1.999008 -0.60736  0.49207
1.999008 -0.60736  0.48813
1.999008 -0.60736  0.48419
1.999008 -0.60736  0.48025
1.999008 -0.60736  0.47631
1.999008 -0.60736  0.47238
1.999008 -0.60736  0.46844
1.999008 -0.60736  0.46450
1.999008 -0.60736  0.46056
1.999008 -0.60736  0.45663
1.999008 -0.60736  0.45269
1.999008 -0.60736  0.44875
1.999008 -0.60736  0.44481
1.999008 -0.60736  0.44087
1.999008 -0.60736  0.43694
1.999008 -0.60736  0.43300
1.999008 -0.60736  0.42906
1.999008 -0.60736  0.42512
1.999008 -0.60736  0.42119
1.999008 -0.60736  0.41725
1.999008 -0.60736  0.41331
1.999008 -0.60736  0.40937
1.999008 -0.60736  0.40543
1.999008 -0.60736  0.40150
1.999008 -0.60736  0.39756
1.999008 -0.60736  0.39362
1.999008 -0.60736  0.38968
1.999008 -0.60736  0.38575
1.999008 -0.60736  0.38181
1.999008 -0.60736  0.37787
1.999008 -0.60736  0.37393
1.999008 -0.60736  0.36999
1.999008 -0.60736  0.36606
1.999008 -0.60736  0.36212
1.999008 -0.60736  0.35818
1.999008 -0.60736  0.35424
1.999008 -0.60736  0.35031
1.999008 -0.60736  0.34637
1.999008 -0.60736  0.34243
1.999008 -0.60736  0.33849
1.999008 -0.60736  0.33455
1.999008 -0.60736  0.33062
1.999008 -0.60736  0.32668
1.999008 -0.60736  0.32274
1.999008 -0.60736  0.31880
1.999008 -0.60736  0.31487
1.999008 -0.60736  0.31093
1.999008 -0.60736  0.30699
1.999008 -0.60736  0.30305
1.999008 -0.60736  0.29911
1.999008 -0.60736  0.29518
1.999008 -0.60736  0.29124
1.999008 -0.60736  0.28730
1.999008 -0.60736  0.28336
1.999008 -0.60736  0.27943
1.999008 -0.60736  0.27549
1.999008 -0.60736  0.27155
1.998844 -0.60761  0.26762
1.998265 -0.60849  0.26372
1.997276 -0.61000  0.25988
1.995884 -0.61212  0.25615
1.994103 -0.61483  0.25256
1.991949 -0.61811  0.24913
1.989443 -0.62192  0.24591
1.986609 -0.62624  0.24293
1.983472 -0.63101  0.24020
1.980061 -0.63620  0.23777
1.976410 -0.64176  0.23564
1.972552 -0.64764  0.23385
1.968523 -0.65377  0.23241
1.964361 -0.66010  0.23133
1.960106 -0.66658  0.23064
1.955799 -0.67314  0.23033
1.951477 -0.67972  0.23032
1.947155 -0.68630  0.23032
1.942833 -0.69288  0.23033
1.938511 -0.69945  0.23034
1.934189 -0.70603  0.23034
1.929867 -0.71261  0.23035
1.925545 -0.71919  0.23035
1.921224 -0.72577  0.23036
1.916902 -0.73235  0.23036
1.912580 -0.73893  0.23037
1.908258 -0.74551  0.23038
1.903936 -0.75209  0.23038
1.899614 -0.75867  0.23039
