1.895300 -0.76523  1.01600
1.891027 -0.77174  1.01661
1.886839 -0.77811  1.01763
1.882775 -0.78430  1.01905
1.878876 -0.79024  1.02085
1.875181 -0.79586  1.02302
1.871727 -0.80112  1.02555
1.868549 -0.80596  1.02840
1.865680 -0.81032  1.03155
1.863149 -0.81418  1.03497
1.860983 -0.81747  1.03862
1.859205 -0.82018  1.04248
1.857834 -0.82227  1.04649
1.856883 -0.82371  1.05063
1.856364 -0.82450  1.05483
1.856260 -0.82466  1.05907
1.856260 -0.82466  1.06331
1.856260 -0.82466  1.06755
1.856260 -0.82466  1.07179
1.856260 -0.82466  1.07603
1.856260 -0.82466  1.08027
1.856260 -0.82466  1.08451
1.856260 -0.82466  1.08875
1.856260 -0.82466  1.09300
1.856260 -0.82466  1.09724
1.856260 -0.82466  1.10148
1.856260 -0.82466  1.10572
1.856260 -0.82466  1.10996
1.856260 -0.82466  1.11420
1.856260 -0.82466  1.11844
1.856260 -0.82466  1.12268
1.856260 -0.82466  1.12692
1.856260 -0.82466  1.13116
1.856260 -0.82466  1.13540
1.856260 -0.82466  1.13964
1.856260 -0.82466  1.14388
1.856260 -0.82466  1.14812
1.856260 -0.82466  1.15236
1.856260 -0.82466  1.15660
1.856260 -0.82466  1.16084
1.856260 -0.82466  1.16509
1.856260 -0.82466  1.16933
1.856260 -0.82466  1.17357
1.856260 -0.82466  1.17781
1.856260 -0.82466  1.18205
1.856260 -0.82466  1.18629
1.856260 -0.82466  1.19053
1.856260 -0.82466  1.19477
1.856260 -0.82466  1.19901
1.856260 -0.82466  1.20325
1.856260 -0.82466  1.20749
1.856260 -0.82466  1.21173
1.856260 -0.82466  1.21597
1.856260 -0.82466  1.22021
1.856260 -0.82466  1.22445
1.856260 -0.82466  1.22869
1.856260 -0.82466  1.23293
1.856260 -0.82466  1.23718
1.856260 -0.82466  1.24142
1.856260 -0.82466  1.24566
1.856260 -0.82466  1.24990
1.856260 -0.82466  1.25414
1.856260 -0.82466  1.25838
1.856260 -0.82466  1.26262
1.856260 -0.82466  1.26686
1.856260 -0.82466  1.27110
1.856260 -0.82466  1.27534
1.856260 -0.82466  1.27958
1.856260 -0.82466  1.28382
1.856260 -0.82466  1.28806
1.856260 -0.82466  1.29230
1.856260 -0.82466  1.29654
1.856260 -0.82466  1.30078
1.856260 -0.82466  1.30502
1.856260 -0.82466  1.30927
1.856260 -0.82466  1.31351
1.856260 -0.82466  1.31775
1.856260 -0.82466  1.32199
1.856260 -0.82466  1.32623
1.856260 -0.82466  1.33047
1.856260 -0.82466  1.33471
1.856260 -0.82466  1.33895
1.856260 -0.82466  1.34319
1.856260 -0.82466  1.34743
1.856260 -0.82466  1.35167
1.856260 -0.82466  1.35591
1.856260 -0.82466  1.36015
1.856260 -0.82466  1.36439
1.856260 -0.82466  1.36863
1.856260 -0.82466  1.37287
1.856260 -0.82466  1.37711
1.856260 -0.82466  1.38135
1.856260 -0.82466  1.38560
1.856260 -0.82466  1.38984
1.856260 -0.82466  1.39408
1.856260 -0.82466  1.39832
1.856260 -0.82466  1.40256
1.856260 -0.82466  1.40680
1.856260 -0.82466  1.41104
1.856260 -0.82466  1.41528
1.856260 -0.82466  1.41952
1.856260 -0.82466  1.42376
1.856260 -0.82466  1.42800
1.856260 -0.82466  1.43224
1.856260 -0.82466  1.43648
1.856260 -0.82466  1.44072
1.856260 -0.82466  1.44496
1.856260 -0.82466  1.44920
1.856260 -0.82466  1.45344
1.856260 -0.82466  1.45769
1.856260 -0.82466  1.46193
1.856260 -0.82466  1.46617
1.856260 -0.82466  1.47041
1.856260 -0.82466  1.47465
1.856260 -0.82466  1.47889
1.856260 -0.82466  1.48313
1.856260 -0.82466  1.48737
1.856260 -0.82466  1.49161
1.856260 -0.82466  1.49585
1.856260 -0.82466  1.50009
1.856260 -0.82466  1.50433
1.856260 -0.82466  1.50857
1.856260 -0.82466  1.51281
1.856260 -0.82466  1.51705
1.856260 -0.82466  1.52129
1.856260 -0.82466  1.52553
1.856260 -0.82466  1.52978
1.856260 -0.82466  1.53402
1.856260 -0.82466  1.53826
1.856260 -0.82466  1.54250
1.856260 -0.82466  1.54674
1.856260 -0.82466  1.55098
1.856260 -0.82466  1.55522
1.856260 -0.82466  1.55946
1.856260 -0.82466  1.56370
1.856260 -0.82466  1.56794
1.856260 -0.82466  1.57218
1.856260 -0.82466  1.57642
1.856260 -0.82466  1.58066
1.856260 -0.82466  1.58490
1.856260 -0.82466  1.58914
1.856260 -0.82466  1.59338
1.856260 -0.82466  1.59762
1.856260 -0.82466  1.60187
1.856260 -0.82466  1.60611
1.856260 -0.82466  1.61035
1.856260 -0.82466  1.61459
1.856260 -0.82466  1.61883
1.856260 -0.82466  1.62307
1.856260 -0.82466  1.62731
1.856260 -0.82466  1.63155
1.856260 -0.82466  1.63579
1.856260 -0.82466  1.64003
1.856260 -0.82466  1.64427
1.856260 -0.82466  1.64851
1.856260 -0.82466  1.65275
1.856260 -0.82466  1.65699
1.856260 -0.82466  1.66123
1.856260 -0.82466  1.66547
1.856260 -0.82466  1.66971
1.856260 -0.82466  1.67396
1.856260 -0.82466  1.67820
1.856260 -0.82466  1.68244
1.856260 -0.82466  1.68668
1.856260 -0.82466  1.69092
1.856456 -0.82436  1.69515
1.857087 -0.82340  1.69934
1.858148 -0.82179  1.70345
1.859626 -0.81954  1.70743
1.861506 -0.81668  1.71123
1.863769 -0.81323  1.71483
1.866389 -0.80924  1.71819
1.869341 -0.80475  1.72126
1.872593 -0.79980  1.72403
1.876113 -0.79444  1.72647
1.879865 -0.78873  1.72854
1.883810 -0.78272  1.73025
1.887910 -0.77648  1.73156
1.892124 -0.77007  1.73248
1.896411 -0.76354  1.73299
1.900730 -0.75697  1.73311
1.905052 -0.75039  1.73311
1.909374 -0.74381  1.73312
1.913696 -0.73723  1.73313
1.918017 -0.73065  1.73313
1.922339 -0.72407  1.73314
1.926661 -0.71749  1.73314
1.930983 -0.71091  1.73315
1.935305 -0.70434  1.73316
1.939627 -0.69776  1.73316
1.943949 -0.69118  1.73317
1.948271 -0.68460  1.73317
1.952592 -0.67802  1.73318
1.956914 -0.67144  1.73312
1.961211 -0.66490  1.73272
1.965446 -0.65845  1.73192
1.969577 -0.65216  1.73075
1.973565 -0.64609  1.72922
1.977374 -0.64030  1.72734
1.980966 -0.63483  1.72513
1.984309 -0.62974  1.72262
1.987370 -0.62508  1.71982
1.990123 -0.62089  1.71677
1.992540 -0.61721  1.71350
1.994599 -0.61407  1.71003
1.996281 -0.61151  1.70639
1.997570 -0.60955  1.70263
1.998454 -0.60821  1.69878
1.998925 -0.60749  1.69486
1.999008 -0.60736  1.69093
1.999008 -0.60736  1.68699
1.999008 -0.60736  1.68305
1.999008 -0.60736  1.67912
1.999008 -0.60736  1.67518
1.999008 -0.60736  1.67124
1.999008 -0.60736  1.66730
1.999008 -0.60736  1.66336
1.999008 -0.60736  1.65943
1.999008 -0.60736  1.65549
1.999008 -0.60736  1.65155
1.999008 -0.60736  1.64761
1.999008 -0.60736  1.64368
1.999008 -0.60736  1.63974
1.999008 -0.60736  1.63580
1.999008 -0.60736  1.63186
1.999008 -0.60736  1.62792
1.999008 -0.60736  1.62399
1.999008 -0.60736  1.62005
1.999008 -0.60736  1.61611
1.999008 -0.60736  1.61217
1.999008 -0.60736  1.60824
1.999008 -0.60736  1.60430
1.999008 -0.60736  1.60036
1.999008 -0.60736  1.59642
1.999008 -0.60736  1.59248
1.999008 -0.60736  1.58855
1.999008 -0.60736  1.58461
1.999008 -0.60736  1.58067
1.999008 -0.60736  1.57673
1.999008 -0.60736  1.57280
1.999008 -0.60736  1.56886
1.999008 -0.60736  1.56492
1.999008 -0.60736  1.56098
1.999008 -0.60736  1.55704
1.999008 -0.60736  1.55311
1.999008 -0.60736  1.54917
1.999008 -0.60736  1.54523
1.999008 -0.60736  1.54129
1.999008 -0.60736  1.53736
1.999008 -0.60736  1.53342
1.999008 -0.60736  1.52948
1.999008 -0.60736  1.52554
1.999008 -0.60736  1.52160
1.999008 -0.60736  1.51767
1.999008 -0.60736  1.51373
1.999008 -0.60736  1.50979
1.999008 -0.60736  1.50585
1.999008 -0.60736  1.50192
1.999008 -0.60736  1.49798
1.999008 -0.60736  1.49404
1.999008 -0.60736  1.49010
1.999008 -0.60736  1.48616
1.999008 -0.60736  1.48223
1.999008 -0.60736  1.47829
1.999008 -0.60736  1.47435
1.999008 -0.60736  1.47041
1.999008 -0.60736  1.46648
1.999008 -0.60736  1.46254
1.999008 -0.60736  1.45860
1.999008 -0.60736  1.45466
1.999008 -0.60736  1.45072
1.999008 -0.60736  1.44679
1.999008 -0.60736  1.44285
1.999008 -0.60736  1.43891
1.999008 -0.60736  1.43497
1.999008 -0.60736  1.43104
1.999008 -0.60736  1.42710
1.999008 -0.60736  1.42316
1.999008 -0.60736  1.41922
1.999008 -0.60736  1.41529
1.999008 -0.60736  1.41135
1.999008 -0.60736  1.40741
1.999008 -0.60736  1.40347
1.999008 -0.60736  1.39953
1.999008 -0.60736  1.39560
1.999008 -0.60736  1.39166
1.999008 -0.60736  1.38772
1.999008 -0.60736  1.38378
1.999008 -0.60736  1.37985
1.999008 -0.60736  1.37591
1.999008 -0.60736  1.37197
1.999008 -0.60736  1.36803
1.999008 -0.60736  1.36409
1.999008 -0.60736  1.36016
1.999008 -0.60736  1.35622
1.999008 -0.60736  1.35228
1.999008 -0.60736  1.34834
1.999008 -0.60736  1.34441
1.999008 -0.60736  1.34047
1.999008 -0.60736  1.33653
1.999008 -0.60736  1.33259
1.999008 -0.60736  1.32865
1.999008 -0.60736  1.32472
1.999008 -0.60736  1.32078
1.999008 -0.60736  1.31684
1.999008 -0.60736  1.31290
1.999008 -0.60736  1.30897
1.999008 -0.60736  1.30503
1.999008 -0.60736  1.30109
1.999008 -0.60736  1.29715
1.999008 -0.60736  1.29321
1.999008 -0.60736  1.28928
1.999008 -0.60736  1.28534
1.999008 -0.60736  1.28140
1.999008 -0.60736  1.27746
1.999008 -0.60736  1.27353
1.999008 -0.60736  1.26959
1.999008 -0.60736  1.26565
1.999008 -0.60736  1.26171
1.999008 -0.60736  1.25777
1.999008 -0.60736  1.25384
1.999008 -0.60736  1.24990
1.999008 -0.60736  1.24596
1.999008 -0.60736  1.24202
1.999008 -0.60736  1.23809
1.999008 -0.60736  1.23415
1.999008 -0.60736  1.23021
1.999008 -0.60736  1.22627
1.999008 -0.60736  1.22233
1.999008 -0.60736  1.21840
1.999008 -0.60736  1.21446
1.999008 -0.60736  1.21052
1.999008 -0.60736  1.20658
1.999008 -0.60736  1.20265
1.999008 -0.60736  1.19871
1.999008 -0.60736  1.19477
1.999008 -0.60736  1.19083
1.999008 -0.60736  1.18689
1.999008 -0.60736  1.18296
1.999008 -0.60736  1.17902
1.999008 -0.60736  1.17508
1.999008 -0.60736  1.17114
1.999008 -0.60736  1.16721
1.999008 -0.60736  1.16327
1.999008 -0.60736  1.15933
1.999008 -0.60736  1.15539
1.999008 -0.60736  1.15145
1.999008 -0.60736  1.14752
1.999008 -0.60736  1.14358
1.999008 -0.60736  1.13964
1.999008 -0.60736  1.13570
1.999008 -0.60736  1.13177
1.999008 -0.60736  1.12783
1.999008 -0.60736  1.12389
1.999008 -0.60736  1.11995
1.999008 -0.60736  1.11601
1.999008 -0.60736  1.11208
1.999008 -0.60736  1.10814
1.999008 -0.60736  1.10420
1.999008 -0.60736  1.10026
1.999008 -0.60736  1.09633
1.999008 -0.60736  1.09239
1.999008 -0.60736  1.08845
1.999008 -0.60736  1.08451
1.999008 -0.60736  1.08058
1.999008 -0.60736  1.07664
1.999008 -0.60736  1.07270
1.999008 -0.60736  1.06876
1.999008 -0.60736  1.06482
1.999008 -0.60736  1.06089
1.999008 -0.60736  1.05695
1.998844 -0.60761  1.05301
1.998265 -0.60849  1.04911
1.997276 -0.61000  1.04528
1.995884 -0.61212  1.04155
1.994103 -0.61483  1.03796
1.991949 -0.61811  1.03453
1.989443 -0.62192  1.03131
1.986609 -0.62624  1.02833
1.983471 -0.63101  1.02560
1.980061 -0.63620  1.02316
1.976410 -0.64176  1.02104
1.972552 -0.64764  1.01925
1.968523 -0.65377  1.01780
1.964361 -0.66010  1.01673
1.960106 -0.66658  1.01603
1.955799 -0.67314  1.01573
1.951477 -0.67972  1.01572
1.947155 -0.68630  1.01572
1.942833 -0.69288  1.01573
1.938511 -0.69945  1.01573
1.934189 -0.70603  1.01574
1.929867 -0.71261  1.01575
1.925546 -0.71919  1.01575
1.921224 -0.72577  1.01576
1.916902 -0.73235  1.01576
1.912580 -0.73893  1.01577
1.908258 -0.74551  1.01577
1.903936 -0.75209  1.01578
1.899614 -0.75867  1.01579
