1.895300 -0.76523  1.80139
1.891027 -0.77174  1.80201
1.886839 -0.77811  1.80303
1.882775 -0.78430  1.80445
1.878876 -0.79024  1.80625
1.875181 -0.79586  1.80842
1.871727 -0.80112  1.81094
1.868549 -0.80596  1.81379
1.865680 -0.81032  1.81694
1.863149 -0.81418  1.82036
1.860983 -0.81747  1.82402
1.859205 -0.82018  1.82788
1.857834 -0.82227  1.83189
1.856883 -0.82371  1.83602
1.856364 -0.82450  1.84023
1.856260 -0.82466  1.84447
1.856260 -0.82466  1.84871
1.856260 -0.82466  1.85295
1.856260 -0.82466  1.85719
1.856260 -0.82466  1.86143
1.856260 -0.82466  1.86567
1.856260 -0.82466  1.86991
1.856260 -0.82466  1.87415
1.856260 -0.82466  1.87839
1.856260 -0.82466  1.88263
1.856260 -0.82466  1.88687
1.856260 -0.82466  1.89112
1.856260 -0.82466  1.89536
1.856260 -0.82466  1.89960
1.856260 -0.82466  1.90384
1.856260 -0.82466  1.90808
1.856260 -0.82466  1.91232
1.856260 -0.82466  1.91656
1.856260 -0.82466  1.92080
1.856260 -0.82466  1.92504
1.856260 -0.82466  1.92928
1.856260 -0.82466  1.93352
1.856260 -0.82466  1.93776
1.856260 -0.82466  1.94200
1.856260 -0.82466  1.94624
1.856260 -0.82466  1.95048
1.856260 -0.82466  1.95472
1.856260 -0.82466  1.95896
1.856260 -0.82466  1.96321
1.856260 -0.82466  1.96745
1.856260 -0.82466  1.97169
1.856260 -0.82466  1.97593
1.856260 -0.82466  1.98017
1.856260 -0.82466  1.98441
1.856260 -0.82466  1.98865
1.856260 -0.82466  1.99289
1.856260 -0.82466  1.99713
1.856260 -0.82466  2.00137
1.856260 -0.82466  2.00561
1.856260 -0.82466  2.00985
1.856260 -0.82466  2.01409
1.856260 -0.82466  2.01833
1.856260 -0.82466  2.02257
1.856260 -0.82466  2.02681
1.856260 -0.82466  2.03105
1.856260 -0.82466  2.03530
1.856260 -0.82466  2.03954
1.856260 -0.82466  2.04378
1.856260 -0.82466  2.04802
1.856260 -0.82466  2.05226
1.856260 -0.82466  2.05650
1.856260 -0.82466  2.06074
1.856260 -0.82466  2.06498
1.856260 -0.82466  2.06922
1.856260 -0.82466  2.07346
1.856260 -0.82466  2.07770
1.856260 -0.82466  2.08194
1.856260 -0.82466  2.08618
1.856260 -0.82466  2.09042
1.856260 -0.82466  2.09466
1.856260 -0.82466  2.09890
1.856260 -0.82466  2.10314
1.856260 -0.82466  2.10738
1.856260 -0.82466  2.11163
1.856260 -0.82466  2.11587
1.856260 -0.82466  2.12011
1.856260 -0.82466  2.12435
1.856260 -0.82466  2.12859
1.856260 -0.82466  2.13283
1.856260 -0.82466  2.13707
1.856260 -0.82466  2.14131
1.856260 -0.82466  2.14555
1.856260 -0.82466  2.14979
1.856260 -0.82466  2.15403
1.856260 -0.82466  2.15827
1.856260 -0.82466  2.16251
1.856260 -0.82466  2.16675
1.856260 -0.82466  2.17099
1.856260 -0.82466  2.17523
1.856260 -0.82466  2.17947
1.856260 -0.82466  2.18372
1.856260 -0.82466  2.18796
1.856260 -0.82466  2.19220
1.856260 -0.82466  2.19644
1.856260 -0.82466  2.20068
1.856260 -0.82466  2.20492
1.856260 -0.82466  2.20916
1.856260 -0.82466  2.21340
1.856260 -0.82466  2.21764
1.856260 -0.82466  2.22188
1.856260 -0.82466  2.22612
1.856260 -0.82466  2.23036
1.856260 -0.82466  2.23460
1.856260 -0.82466  2.23884
1.856260 -0.82466  2.24308
1.856260 -0.82466  2.24732
1.856260 -0.82466  2.25156
1.856260 -0.82466  2.25581
1.856260 -0.82466  2.26005
1.856260 -0.82466  2.26429
1.856260 -0.82466  2.26853
1.856260 -0.82466  2.27277
1.856260 -0.82466  2.27701
1.856260 -0.82466  2.28125
1.856260 -0.82466  2.28549
1.856260 -0.82466  2.28973
1.856260 -0.82466  2.29397
1.856260 -0.82466  2.29821
1.856260 -0.82466  2.30245
1.856260 -0.82466  2.30669
1.856260 -0.82466  2.31093
1.856260 -0.82466  2.31517
1.856260 -0.82466  2.31941
1.856260 -0.82466  2.32365
1.856260 -0.82466  2.32790
1.856260 -0.82466  2.33214
1.856260 -0.82466  2.33638
1.856260 -0.82466  2.34062
1.856260 -0.82466  2.34486
1.856260 -0.82466  2.34910
1.856260 -0.82466  2.35334
1.856260 -0.82466  2.35758
1.856260 -0.82466  2.36182
1.856260 -0.82466  2.36606
1.856260 -0.82466  2.37030
1.856260 -0.82466  2.37454
1.856260 -0.82466  2.37878
1.856260 -0.82466  2.38302
1.856260 -0.82466  2.38726
1.856260 -0.82466  2.39150
1.856260 -0.82466  2.39574
1.856260 -0.82466  2.39999
1.856260 -0.82466  2.40423
1.856260 -0.82466  2.40847
1.856260 -0.82466  2.41271
1.856260 -0.82466  2.41695
1.856260 -0.82466  2.42119
1.856260 -0.82466  2.42543
1.856260 -0.82466  2.42967
1.856260 -0.82466  2.43391
1.856260 -0.82466  2.43815
1.856260 -0.82466  2.44239
1.856260 -0.82466  2.44663
1.856260 -0.82466  2.45087
1.856260 -0.82466  2.45511
1.856260 -0.82466  2.45935
1.856260 -0.82466  2.46359
1.856260 -0.82466  2.46783
1.856260 -0.82466  2.47208
1.856260 -0.82466  2.47632
1.856456 -0.82436  2.48055
1.857087 -0.82340  2.48474
1.858148 -0.82179  2.48885
1.859626 -0.81954  2.49283
1.861506 -0.81668  2.49663
1.863769 -0.81323  2.50023
1.866389 -0.80924  2.50359
1.869341 -0.80475  2.50666
1.872593 -0.79980  2.50943
1.876113 -0.79444  2.51186
1.879865 -0.78873  2.51394
1.883810 -0.78272  2.51565
1.887910 -0.77648  2.51696
1.892124 -0.77007  2.51788
1.896411 -0.76354  2.51839
1.900730 -0.75697  2.51851
1.905052 -0.75039  2.51851
1.909374 -0.74381  2.51852
1.913696 -0.73723  2.51852
1.918018 -0.73065  2.51853
1.922339 -0.72407  2.51854
1.926661 -0.71749  2.51854
1.930983 -0.71091  2.51855
1.935305 -0.70434  2.51855
1.939627 -0.69776  2.51856
1.943949 -0.69118  2.51856
1.948271 -0.68460  2.51857
1.952593 -0.67802  2.51858
1.956913 -0.67144  2.51852
1.961211 -0.66490  2.51811
1.965446 -0.65845  2.51732
1.969577 -0.65216  2.51615
1.973565 -0.64609  2.51462
1.977374 -0.64030  2.51274
1.980966 -0.63483  2.51053
1.984309 -0.62974  2.50801
1.987370 -0.62508  2.50522
1.990123 -0.62089  2.50217
1.992540 -0.61721  2.49889
1.994599 -0.61407  2.49542
1.996281 -0.61151  2.49179
1.997570 -0.60955  2.48803
1.998454 -0.60821  2.48418
1.998925 -0.60749  2.48026
1.999008 -0.60736  2.47633
1.999008 -0.60736  2.47239
1.999008 -0.60736  2.46845
1.999008 -0.60736  2.46451
1.999008 -0.60736  2.46058
1.999008 -0.60736  2.45664
1.999008 -0.60736  2.45270
1.999008 -0.60736  2.44876
1.999008 -0.60736  2.44482
1.999008 -0.60736  2.44089
1.999008 -0.60736  2.43695
1.999008 -0.60736  2.43301
1.999008 -0.60736  2.42907
1.999008 -0.60736  2.42514
1.999008 -0.60736  2.42120
1.999008 -0.60736  2.41726
1.999008 -0.60736  2.41332
1.999008 -0.60736  2.40938
1.999008 -0.60736  2.40545
1.999008 -0.60736  2.40151
1.999008 -0.60736  2.39757
1.999008 -0.60736  2.39363
1.999008 -0.60736  2.38970
1.999008 -0.60736  2.38576
1.999008 -0.60736  2.38182
1.999008 -0.60736  2.37788
1.999008 -0.60736  2.37394
1.999008 -0.60736  2.37001
1.999008 -0.60736  2.36607
1.999008 -0.60736  2.36213
1.999008 -0.60736  2.35819
1.999008 -0.60736  2.35426
1.999008 -0.60736  2.35032
1.999008 -0.60736  2.34638
1.999008 -0.60736  2.34244
1.999008 -0.60736  2.33851
1.999008 -0.60736  2.33457
1.999008 -0.60736  2.33063
1.999008 -0.60736  2.32669
1.999008 -0.60736  2.32275
1.999008 -0.60736  2.31882
1.999008 -0.60736  2.31488
1.999008 -0.60736  2.31094
1.999008 -0.60736  2.30700
1.999008 -0.60736  2.30307
1.999008 -0.60736  2.29913
1.999008 -0.60736  2.29519
1.999008 -0.60736  2.29125
1.999008 -0.60736  2.28731
1.999008 -0.60736  2.28338
1.999008 -0.60736  2.27944
1.999008 -0.60736  2.27550
1.999008 -0.60736  2.27156
1.999008 -0.60736  2.26763
1.999008 -0.60736  2.26369
1.999008 -0.60736  2.25975
1.999008 -0.60736  2.25581
1.999008 -0.60736  2.25187
1.999008 -0.60736  2.24794
1.999008 -0.60736  2.24400
1.999008 -0.60736  2.24006
1.999008 -0.60736  2.23612
1.999008 -0.60736  2.23219
1.999008 -0.60736  2.22825
1.999008 -0.60736  2.22431
1.999008 -0.60736  2.22037
1.999008 -0.60736  2.21643
1.999008 -0.60736  2.21250
1.999008 -0.60736  2.20856
1.999008 -0.60736  2.20462
1.999008 -0.60736  2.20068
1.999008 -0.60736  2.19675
1.999008 -0.60736  2.19281
1.999008 -0.60736  2.18887
1.999008 -0.60736  2.18493
1.999008 -0.60736  2.18099
1.999008 -0.60736  2.17706
1.999008 -0.60736  2.17312
1.999008 -0.60736  2.16918
1.999008 -0.60736  2.16524
1.999008 -0.60736  2.16131
1.999008 -0.60736  2.15737
1.999008 -0.60736  2.15343
1.999008 -0.60736  2.14949
1.999008 -0.60736  2.14555
1.999008 -0.60736  2.14162
1.999008 -0.60736  2.13768
1.999008 -0.60736  2.13374
1.999008 -0.60736  2.12980
1.999008 -0.60736  2.12587
1.999008 -0.60736  2.12193
1.999008 -0.60736  2.11799
1.999008 -0.60736  2.11405
1.999008 -0.60736  2.11011
1.999008 -0.60736  2.10618
1.999008 -0.60736  2.10224
1.999008 -0.60736  2.09830
1.999008 -0.60736  2.09436
1.999008 -0.60736  2.09043
1.999008 -0.60736  2.08649
1.999008 -0.60736  2.08255
1.999008 -0.60736  2.07861
1.999008 -0.60736  2.07467
1.999008 -0.60736  2.07074
1.999008 -0.60736  2.06680
1.999008 -0.60736  2.06286
1.999008 -0.60736  2.05892
1.999008 -0.60736  2.05499
1.999008 -0.60736  2.05105
1.999008 -0.60736  2.04711
1.999008 -0.60736  2.04317
1.999008 -0.60736  2.03923
1.999008 -0.60736  2.03530
1.999008 -0.60736  2.03136
1.999008 -0.60736  2.02742
1.999008 -0.60736  2.02348
1.999008 -0.60736  2.01955
1.999008 -0.60736  2.01561
1.999008 -0.60736  2.01167
1.999008 -0.60736  2.00773
1.999008 -0.60736  2.00380
1.999008 -0.60736  1.99986
1.999008 -0.60736  1.99592
1.999008 -0.60736  1.99198
1.999008 -0.60736  1.98804
1.999008 -0.60736  1.98411
1.999008 -0.60736  1.98017
1.999008 -0.60736  1.97623
1.999008 -0.60736  1.97229
1.999008 -0.60736  1.96836
1.999008 -0.60736  1.96442
1.999008 -0.60736  1.96048
1.999008 -0.60736  1.95654
1.999008 -0.60736  1.95260
1.999008 -0.60736  1.94867
1.999008 -0.60736  1.94473
1.999008 -0.60736  1.94079
1.999008 -0.60736  1.93685
1.999008 -0.60736  1.93292
1.999008 -0.60736  1.92898
1.999008 -0.60736  1.92504
1.999008 -0.60736  1.92110
1.999008 -0.60736  1.91716
1.999008 -0.60736  1.91323
1.999008 -0.60736  1.90929
1.999008 -0.60736  1.90535
1.999008 -0.60736  1.90141
1.999008 -0.60736  1.89748
1.999008 -0.60736  1.89354
1.999008 -0.60736  1.88960
1.999008 -0.60736  1.88566
1.999008 -0.60736  1.88172
1.999008 -0.60736  1.87779
1.999008 -0.60736  1.87385
1.999008 -0.60736  1.86991
1.999008 -0.60736  1.86597
1.999008 -0.60736  1.86204
1.999008 -0.60736  1.85810
1.999008 -0.60736  1.85416
1.999008 -0.60736  1.85022
1.999008 -0.60736  1.84628
1.999008 -0.60736  1.84235
1.998844 -0.60761  1.83841
1.998265 -0.60849  1.83451
1.997276 -0.61000  1.83068
1.995884 -0.61212  1.82695
1.994103 -0.61483  1.82335
1.991949 -0.61811  1.81993
1.989443 -0.62192  1.81671
1.986609 -0.62624  1.81372
1.983472 -0.63101  1.81100
1.980061 -0.63620  1.80856
1.976410 -0.64176  1.80644
1.972552 -0.64764  1.80464
1.968523 -0.65377  1.80320
1.964361 -0.66010  1.80213
1.960106 -0.66658  1.80143
1.955799 -0.67314  1.80113
1.951477 -0.67972  1.80112
1.947155 -0.68630  1.80112
1.942833 -0.69288  1.80113
1.938511 -0.69945  1.80113
1.934189 -0.70603  1.80114
1.929867 -0.71261  1.80114
1.925545 -0.71919  1.80115
1.921224 -0.72577  1.80116
1.916902 -0.73235  1.80116
1.912580 -0.73893  1.80117
1.908258 -0.74551  1.80117
1.903936 -0.75209  1.80118
1.899614 -0.75867  1.80118
