1.895300 -0.76523  2.58679
1.891027 -0.77174  2.58741
1.886839 -0.77811  2.58843
1.882775 -0.78430  2.58985
1.878876 -0.79024  2.59165
1.875181 -0.79586  2.59382
1.871727 -0.80112  2.59634
1.868549 -0.80596  2.59919
1.865680 -0.81032  2.60234
1.863149 -0.81418  2.60576
1.860983 -0.81747  2.60942
1.859205 -0.82018  2.61327
1.857834 -0.82227  2.61729
1.856883 -0.82371  2.62142
1.856364 -0.82450  2.62563
1.856260 -0.82466  2.62987
1.856260 -0.82466  2.63411
1.856260 -0.82466  2.63835
1.856260 -0.82466  2.64259
1.856260 -0.82466  2.64683
1.856260 -0.82466  2.65107
1.856260 -0.82466  2.65531
1.856260 -0.82466  2.65955
1.856260 -0.82466  2.66379
1.856260 -0.82466  2.66803
1.856260 -0.82466  2.67227
1.856260 -0.82466  2.67651
1.856260 -0.82466  2.68075
1.856260 -0.82466  2.68499
1.856260 -0.82466  2.68924
1.856260 -0.82466  2.69348
1.856260 -0.82466  2.69772
1.856260 -0.82466  2.70196
1.856260 -0.82466  2.70620
1.856260 -0.82466  2.71044
1.856260 -0.82466  2.71468
1.856260 -0.82466  2.71892
1.856260 -0.82466  2.72316
1.856260 -0.82466  2.72740
1.856260 -0.82466  2.73164
1.856260 -0.82466  2.73588
1.856260 -0.82466  2.74012
1.856260 -0.82466  2.74436
1.856260 -0.82466  2.74860
1.856260 -0.82466  2.75284
1.856260 -0.82466  2.75708
1.856260 -0.82466  2.76133
1.856260 -0.82466  2.76557
1.856260 -0.82466  2.76981
1.856260 -0.82466  2.77405
1.856260 -0.82466  2.77829
1.856260 -0.82466  2.78253
1.856260 -0.82466  2.78677
1.856260 -0.82466  2.79101
1.856260 -0.82466  2.79525
1.856260 -0.82466  2.79949
1.856260 -0.82466  2.80373
1.856260 -0.82466  2.80797
1.856260 -0.82466  2.81221
1.856260 -0.82466  2.81645
1.856260 -0.82466  2.82069
1.856260 -0.82466  2.82493
1.856260 -0.82466  2.82917
1.856260 -0.82466  2.83341
1.856260 -0.82466  2.83766
1.856260 -0.82466  2.84190
1.856260 -0.82466  2.84614
1.856260 -0.82466  2.85038
1.856260 -0.82466  2.85462
1.856260 -0.82466  2.85886
1.856260 -0.82466  2.86310
1.856260 -0.82466  2.86734
1.856260 -0.82466  2.87158
1.856260 -0.82466  2.87582
1.856260 -0.82466  2.88006
1.856260 -0.82466  2.88430
1.856260 -0.82466  2.88854
1.856260 -0.82466  2.89278
1.856260 -0.82466  2.89702
1.856260 -0.82466  2.90126
1.856260 -0.82466  2.90550
1.856260 -0.82466  2.90975
1.856260 -0.82466  2.91399
1.856260 -0.82466  2.91823
1.856260 -0.82466  2.92247
1.856260 -0.82466  2.92671
1.856260 -0.82466  2.93095
1.856260 -0.82466  2.93519
1.856260 -0.82466  2.93943
1.856260 -0.82466  2.94367
1.856260 -0.82466  2.94791
1.856260 -0.82466  2.95215
1.856260 -0.82466  2.95639
1.856260 -0.82466  2.96063
1.856260 -0.82466  2.96487
1.856260 -0.82466  2.96911
1.856260 -0.82466  2.97335
1.856260 -0.82466  2.97759
1.856260 -0.82466  2.98184
1.856260 -0.82466  2.98608
1.856260 -0.82466  2.99032
1.856260 -0.82466  2.99456
1.856260 -0.82466  2.99880
1.856260 -0.82466  3.00304
1.856260 -0.82466  3.00728
1.856260 -0.82466  3.01152
1.856260 -0.82466  3.01576
1.856260 -0.82466  3.02000
1.856260 -0.82466  3.02424
1.856260 -0.82466  3.02848
1.856260 -0.82466  3.03272
1.856260 -0.82466  3.03696
1.856260 -0.82466  3.04120
1.856260 -0.82466  3.04544
1.856260 -0.82466  3.04968
1.856260 -0.82466  3.05393
1.856260 -0.82466  3.05817
1.856260 -0.82466  3.06241
1.856260 -0.82466  3.06665
1.856260 -0.82466  3.07089
1.856260 -0.82466  3.07513
1.856260 -0.82466  3.07937
1.856260 -0.82466  3.08361
1.856260 -0.82466  3.08785
1.856260 -0.82466  3.09209
1.856260 -0.82466  3.09633
1.856260 -0.82466  3.10057
1.856260 -0.82466  3.10481
1.856260 -0.82466  3.10905
1.856260 -0.82466  3.11329
1.856260 -0.82466  3.11753
1.856260 -0.82466  3.12177
1.856260 -0.82466  3.12602
1.856260 -0.82466  3.13026
1.856260 -0.82466  3.13450
1.856260 -0.82466  3.13874
1.856260 -0.82466  3.14298
1.856260 -0.82466  3.14722
1.856260 -0.82466  3.15146
1.856260 -0.82466  3.15570
1.856260 -0.82466  3.15994
1.856260 -0.82466  3.16418
1.856260 -0.82466  3.16842
1.856260 -0.82466  3.17266
1.856260 -0.82466  3.17690
1.856260 -0.82466  3.18114
1.856260 -0.82466  3.18538
1.856260 -0.82466  3.18962
1.856260 -0.82466  3.19386
1.856260 -0.82466  3.19811
1.856260 -0.82466  3.20235
1.856260 -0.82466  3.20659
1.856260 -0.82466  3.21083
1.856260 -0.82466  3.21507
1.856260 -0.82466  3.21931
1.856260 -0.82466  3.22355
1.856260 -0.82466  3.22779
1.856260 -0.82466  3.23203
1.856260 -0.82466  3.23627
1.856260 -0.82466  3.24051
1.856260 -0.82466  3.24475
1.856260 -0.82466  3.24899
1.856260 -0.82466  3.25323
1.856260 -0.82466  3.25747
1.856260 -0.82466  3.26171
1.856456 -0.82436  3.26595
1.857087 -0.82340  3.27014
1.858148 -0.82179  3.27425
1.859626 -0.81954  3.27822
1.861506 -0.81668  3.28203
1.863769 -0.81323  3.28563
1.866389 -0.80924  3.28898
1.869341 -0.80475  3.29206
1.872593 -0.79980  3.29483
1.876113 -0.79444  3.29726
1.879865 -0.78873  3.29934
1.883810 -0.78272  3.30104
1.887910 -0.77648  3.30236
1.892124 -0.77007  3.30328
1.896411 -0.76354  3.30379
1.900730 -0.75697  3.30390
1.905052 -0.75039  3.30391
1.909374 -0.74381  3.30392
1.913696 -0.73723  3.30392
1.918017 -0.73065  3.30393
1.922339 -0.72407  3.30393
1.926661 -0.71749  3.30394
1.930983 -0.71091  3.30395
1.935305 -0.70434  3.30395
1.939627 -0.69776  3.30396
1.943949 -0.69118  3.30396
1.948271 -0.68460  3.30397
1.952592 -0.67802  3.30397
1.956914 -0.67144  3.30392
1.961211 -0.66490  3.30351
1.965446 -0.65845  3.30272
1.969577 -0.65216  3.30155
1.973565 -0.64609  3.30001
1.977374 -0.64030  3.29813
1.980966 -0.63483  3.29593
1.984309 -0.62974  3.29341
1.987370 -0.62508  3.29062
1.990123 -0.62089  3.28757
1.992540 -0.61721  3.28429
1.994599 -0.61407  3.28082
1.996281 -0.61151  3.27719
1.997570 -0.60955  3.27343
1.998454 -0.60821  3.26957
1.998925 -0.60749  3.26566
1.999008 -0.60736  3.26172
1.999008 -0.60736  3.25779
1.999008 -0.60736  3.25385
1.999008 -0.60736  3.24991
1.999008 -0.60736  3.24597
1.999008 -0.60736  3.24204
1.999008 -0.60736  3.23810
1.999008 -0.60736  3.23416
1.999008 -0.60736  3.23022
1.999008 -0.60736  3.22629
1.999008 -0.60736  3.22235
1.999008 -0.60736  3.21841
1.999008 -0.60736  3.21447
1.999008 -0.60736  3.21053
1.999008 -0.60736  3.20660
1.999008 -0.60736  3.20266
1.999008 -0.60736  3.19872
1.999008 -0.60736  3.19478
1.999008 -0.60736  3.19085
1.999008 -0.60736  3.18691
1.999008 -0.60736  3.18297
1.999008 -0.60736  3.17903
1.999008 -0.60736  3.17509
1.999008 -0.60736  3.17116
1.999008 -0.60736  3.16722
1.999008 -0.60736  3.16328
1.999008 -0.60736  3.15934
1.999008 -0.60736  3.15541
1.999008 -0.60736  3.15147
1.999008 -0.60736  3.14753
1.999008 -0.60736  3.14359
1.999008 -0.60736  3.13965
1.999008 -0.60736  3.13572
1.999008 -0.60736  3.13178
1.999008 -0.60736  3.12784
1.999008 -0.60736  3.12390
1.999008 -0.60736  3.11997
1.999008 -0.60736  3.11603
1.999008 -0.60736  3.11209
1.999008 -0.60736  3.10815
1.999008 -0.60736  3.10421
1.999008 -0.60736  3.10028
1.999008 -0.60736  3.09634
1.999008 -0.60736  3.09240
1.999008 -0.60736  3.08846
1.999008 -0.60736  3.08453
1.999008 -0.60736  3.08059
1.999008 -0.60736  3.07665
1.999008 -0.60736  3.07271
1.999008 -0.60736  3.06877
1.999008 -0.60736  3.06484
1.999008 -0.60736  3.06090
1.999008 -0.60736  3.05696
1.999008 -0.60736  3.05302
1.999008 -0.60736  3.04909
1.999008 -0.60736  3.04515
1.999008 -0.60736  3.04121
1.999008 -0.60736  3.03727
1.999008 -0.60736  3.03333
1.999008 -0.60736  3.02940
1.999008 -0.60736  3.02546
1.999008 -0.60736  3.02152
1.999008 -0.60736  3.01758
1.999008 -0.60736  3.01365
1.999008 -0.60736  3.00971
1.999008 -0.60736  3.00577
1.999008 -0.60736  3.00183
1.999008 -0.60736  2.99789
1.999008 -0.60736  2.99396
1.999008 -0.60736  2.99002
1.999008 -0.60736  2.98608
1.999008 -0.60736  2.98214
1.999008 -0.60736  2.97821
1.999008 -0.60736  2.97427
1.999008 -0.60736  2.97033
1.999008 -0.60736  2.96639
1.999008 -0.60736  2.96245
1.999008 -0.60736  2.95852
1.999008 -0.60736  2.95458
1.999008 -0.60736  2.95064
1.999008 -0.60736  2.94670
1.999008 -0.60736  2.94277
1.999008 -0.60736  2.93883
1.999008 -0.60736  2.93489
1.999008 -0.60736  2.93095
1.999008 -0.60736  2.92701
1.999008 -0.60736  2.92308
1.999008 -0.60736  2.91914
1.999008 -0.60736  2.91520
1.999008 -0.60736  2.91126
1.999008 -0.60736  2.90733
1.999008 -0.60736  2.90339
1.999008 -0.60736  2.89945
1.999008 -0.60736  2.89551
1.999008 -0.60736  2.89158
1.999008 -0.60736  2.88764
1.999008 -0.60736  2.88370
1.999008 -0.60736  2.87976
1.999008 -0.60736  2.87582
1.999008 -0.60736  2.87189
1.999008 -0.60736  2.86795
1.999008 -0.60736  2.86401
1.999008 -0.60736  2.86007
1.999008 -0.60736  2.85614
1.999008 -0.60736  2.85220
1.999008 -0.60736  2.84826
1.999008 -0.60736  2.84432
1.999008 -0.60736  2.84038
1.999008 -0.60736  2.83645
1.999008 -0.60736  2.83251
1.999008 -0.60736  2.82857
1.999008 -0.60736  2.82463
1.999008 -0.60736  2.82070
1.999008 -0.60736  2.81676
1.999008 -0.60736  2.81282
1.999008 -0.60736  2.80888
1.999008 -0.60736  2.80494
1.999008 -0.60736  2.80101
1.999008 -0.60736  2.79707
1.999008 -0.60736  2.79313
1.999008 -0.60736  2.78919
1.999008 -0.60736  2.78526
1.999008 -0.60736  2.78132
1.999008 -0.60736  2.77738
1.999008 -0.60736  2.77344
1.999008 -0.60736  2.76950
1.999008 -0.60736  2.76557
1.999008 -0.60736  2.76163
1.999008 -0.60736  2.75769
1.999008 -0.60736  2.75375
1.999008 -0.60736  2.74982
1.999008 -0.60736  2.74588
1.999008 -0.60736  2.74194
1.999008 -0.60736  2.73800
1.999008 -0.60736  2.73406
1.999008 -0.60736  2.73013
1.999008 -0.60736  2.72619
1.999008 -0.60736  2.72225
1.999008 -0.60736  2.71831
1.999008 -0.60736  2.71438
1.999008 -0.60736  2.71044
1.999008 -0.60736  2.70650
1.999008 -0.60736  2.70256
1.999008 -0.60736  2.69862
1.999008 -0.60736  2.69469
1.999008 -0.60736  2.69075
1.999008 -0.60736  2.68681
1.999008 -0.60736  2.68287
1.999008 -0.60736  2.67894
1.999008 -0.60736  2.67500
1.999008 -0.60736  2.67106
1.999008 -0.60736  2.66712
1.999008 -0.60736  2.66318
1.999008 -0.60736  2.65925
1.999008 -0.60736  2.65531
1.999008 -0.60736  2.65137
1.999008 -0.60736  2.64743
1.999008 -0.60736  2.64350
1.999008 -0.60736  2.63956
1.999008 -0.60736  2.63562
1.999008 -0.60736  2.63168
1.999008 -0.60736  2.62774
1.998844 -0.60761  2.62381
1.998265 -0.60849  2.61991
1.997276 -0.61000  2.61608
1.995884 -0.61212  2.61235
1.994103 -0.61483  2.60875
1.991949 -0.61811  2.60533
1.989443 -0.62192  2.60211
1.986609 -0.62624  2.59912
1.983471 -0.63101  2.59640
1.980061 -0.63620  2.59396
1.976410 -0.64176  2.59183
1.972552 -0.64764  2.59004
1.968523 -0.65377  2.58860
1.964361 -0.66010  2.58753
1.960106 -0.66658  2.58683
1.955799 -0.67314  2.58652
1.951477 -0.67972  2.58651
1.947155 -0.68630  2.58652
1.942833 -0.69288  2.58652
1.938511 -0.69945  2.58653
1.934189 -0.70603  2.58654
1.929867 -0.71261  2.58654
1.925546 -0.71919  2.58655
1.921224 -0.72577  2.58655
1.916902 -0.73235  2.58656
1.912580 -0.73893  2.58657
1.908258 -0.74551  2.58657
1.903936 -0.75209  2.58658
1.899614 -0.75867  2.58658
