1.895300 -0.76523  3.37219
1.891027 -0.77174  3.37281
1.886839 -0.77811  3.37383
1.882775 -0.78430  3.37524
1.878876 -0.79024  3.37705
1.875181 -0.79586  3.37922
1.871727 -0.80112  3.38174
1.868549 -0.80596  3.38459
1.865680 -0.81032  3.38774
1.863149 -0.81418  3.39116
1.860983 -0.81747  3.39482
1.859205 -0.82018  3.39867
1.857834 -0.82227  3.40269
1.856883 -0.82371  3.40682
1.856364 -0.82450  3.41103
1.856260 -0.82466  3.41527
1.856260 -0.82466  3.41951
1.856260 -0.82466  3.42375
1.856260 -0.82466  3.42799
1.856260 -0.82466  3.43223
1.856260 -0.82466  3.43647
1.856260 -0.82466  3.44071
1.856260 -0.82466  3.44495
1.856260 -0.82466  3.44919
1.856260 -0.82466  3.45343
1.856260 -0.82466  3.45767
1.856260 -0.82466  3.46191
1.856260 -0.82466  3.46615
1.856260 -0.82466  3.47039
1.856260 -0.82466  3.47463
1.856260 -0.82466  3.47887
1.856260 -0.82466  3.48311
1.856260 -0.82466  3.48736
1.856260 -0.82466  3.49160
1.856260 -0.82466  3.49584
1.856260 -0.82466  3.50008
1.856260 -0.82466  3.50432
1.856260 -0.82466  3.50856
1.856260 -0.82466  3.51280
1.856260 -0.82466  3.51704
1.856260 -0.82466  3.52128
1.856260 -0.82466  3.52552
1.856260 -0.82466  3.52976
1.856260 -0.82466  3.53400
1.856260 -0.82466  3.53824
1.856260 -0.82466  3.54248
1.856260 -0.82466  3.54672
1.856260 -0.82466  3.55096
1.856260 -0.82466  3.55520
1.856260 -0.82466  3.55945
1.856260 -0.82466  3.56369
1.856260 -0.82466  3.56793
1.856260 -0.82466  3.57217
1.856260 -0.82466  3.57641
1.856260 -0.82466  3.58065
1.856260 -0.82466  3.58489
1.856260 -0.82466  3.58913
1.856260 -0.82466  3.59337
1.856260 -0.82466  3.59761
1.856260 -0.82466  3.60185
1.856260 -0.82466  3.60609
1.856260 -0.82466  3.61033
1.856260 -0.82466  3.61457
1.856260 -0.82466  3.61881
1.856260 -0.82466  3.62305
1.856260 -0.82466  3.62729
1.856260 -0.82466  3.63153
1.856260 -0.82466  3.63578
1.856260 -0.82466  3.64002
1.856260 -0.82466  3.64426
1.856260 -0.82466  3.64850
1.856260 -0.82466  3.65274
1.856260 -0.82466  3.65698
1.856260 -0.82466  3.66122
1.856260 -0.82466  3.66546
1.856260 -0.82466  3.66970
1.856260 -0.82466  3.67394
1.856260 -0.82466  3.67818
1.856260 -0.82466  3.68242
1.856260 -0.82466  3.68666
1.856260 -0.82466  3.69090
1.856260 -0.82466  3.69514
1.856260 -0.82466  3.69938
1.856260 -0.82466  3.70362
1.856260 -0.82466  3.70787
1.856260 -0.82466  3.71211
1.856260 -0.82466  3.71635
1.856260 -0.82466  3.72059
1.856260 -0.82466  3.72483
1.856260 -0.82466  3.72907
1.856260 -0.82466  3.73331
1.856260 -0.82466  3.73755
1.856260 -0.82466  3.74179
1.856260 -0.82466  3.74603
1.856260 -0.82466  3.75027
1.856260 -0.82466  3.75451
1.856260 -0.82466  3.75875
1.856260 -0.82466  3.76299
1.856260 -0.82466  3.76723
1.856260 -0.82466  3.77147
1.856260 -0.82466  3.77571
1.856260 -0.82466  3.77996
1.856260 -0.82466  3.78420
1.856260 -0.82466  3.78844
1.856260 -0.82466  3.79268
1.856260 -0.82466  3.79692
1.856260 -0.82466  3.80116
1.856260 -0.82466  3.80540
1.856260 -0.82466  3.80964
1.856260 -0.82466  3.81388
1.856260 -0.82466  3.81812
1.856260 -0.82466  3.82236
1.856260 -0.82466  3.82660
1.856260 -0.82466  3.83084
1.856260 -0.82466  3.83508
1.856260 -0.82466  3.83932
1.856260 -0.82466  3.84356
1.856260 -0.82466  3.84780
1.856260 -0.82466  3.85205
1.856260 -0.82466  3.85629
1.856260 -0.82466  3.86053
1.856260 -0.82466  3.86477
1.856260 -0.82466  3.86901
1.856260 -0.82466  3.87325
1.856260 -0.82466  3.87749
1.856260 -0.82466  3.88173
1.856260 -0.82466  3.88597
1.856260 -0.82466  3.89021
1.856260 -0.82466  3.89445
1.856260 -0.82466  3.89869
1.856260 -0.82466  3.90293
1.856260 -0.82466  3.90717
1.856260 -0.82466  3.91141
1.856260 -0.82466  3.91565
1.856260 -0.82466  3.91989
1.856260 -0.82466  3.92414
1.856260 -0.82466  3.92838
1.856260 -0.82466  3.93262
1.856260 -0.82466  3.93686
1.856260 -0.82466  3.94110
1.856260 -0.82466  3.94534
1.856260 -0.82466  3.94958
1.856260 -0.82466  3.95382
1.856260 -0.82466  3.95806
1.856260 -0.82466  3.96230
1.856260 -0.82466  3.96654
1.856260 -0.82466  3.97078
1.856260 -0.82466  3.97502
1.856260 -0.82466  3.97926
1.856260 -0.82466  3.98350
1.856260 -0.82466  3.98774
1.856260 -0.82466  3.99198
1.856260 -0.82466  3.99622
1.856260 -0.82466  4.00047
1.856260 -0.82466  4.00471
1.856260 -0.82466  4.00895
1.856260 -0.82466  4.01319
1.856260 -0.82466  4.01743
1.856260 -0.82466  4.02167
1.856260 -0.82466  4.02591
1.856260 -0.82466  4.03015
1.856260 -0.82466  4.03439
1.856260 -0.82466  4.03863
1.856260 -0.82466  4.04287
1.856260 -0.82466  4.04711
1.856456 -0.82436  4.05135
1.857087 -0.82340  4.05554
1.858148 -0.82179  4.05964
1.859626 -0.81954  4.06362
1.861506 -0.81668  4.06743
1.863769 -0.81323  4.07103
1.866389 -0.80924  4.07438
1.869341 -0.80475  4.07746
1.872593 -0.79980  4.08023
1.876113 -0.79444  4.08266
1.879865 -0.78873  4.08474
1.883810 -0.78272  4.08644
1.887910 -0.77648  4.08776
1.892124 -0.77007  4.08867
1.896411 -0.76354  4.08919
1.900730 -0.75697  4.08930
1.905052 -0.75039  4.08931
1.909374 -0.74381  4.08931
1.913696 -0.73723  4.08932
1.918018 -0.73065  4.08933
1.922339 -0.72407  4.08933
1.926661 -0.71749  4.08934
1.930983 -0.71091  4.08934
1.935305 -0.70434  4.08935
1.939627 -0.69776  4.08936
1.943949 -0.69118  4.08936
1.948271 -0.68460  4.08937
1.952593 -0.67802  4.08937
1.956913 -0.67144  4.08932
1.961211 -0.66490  4.08891
1.965446 -0.65845  4.08812
1.969577 -0.65216  4.08695
1.973565 -0.64609  4.08541
1.977374 -0.64030  4.08353
1.980966 -0.63483  4.08132
1.984309 -0.62974  4.07881
1.987370 -0.62508  4.07601
1.990123 -0.62089  4.07296
1.992540 -0.61721  4.06969
1.994599 -0.61407  4.06622
1.996281 -0.61151  4.06259
1.997570 -0.60955  4.05883
1.998454 -0.60821  4.05497
1.998925 -0.60749  4.05106
1.999008 -0.60736  4.04712
1.999008 -0.60736  4.04319
1.999008 -0.60736  4.03925
1.999008 -0.60736  4.03531
1.999008 -0.60736  4.03137
1.999008 -0.60736  4.02743
1.999008 -0.60736  4.02350
1.999008 -0.60736  4.01956
1.999008 -0.60736  4.01562
1.999008 -0.60736  4.01168
1.999008 -0.60736  4.00775
1.999008 -0.60736  4.00381
1.999008 -0.60736  3.99987
1.999008 -0.60736  3.99593
1.999008 -0.60736  3.99199
1.999008 -0.60736  3.98806
1.999008 -0.60736  3.98412
1.999008 -0.60736  3.98018
1.999008 -0.60736  3.97624
1.999008 -0.60736  3.97231
1.999008 -0.60736  3.96837
1.999008 -0.60736  3.96443
1.999008 -0.60736  3.96049
1.999008 -0.60736  3.95655
1.999008 -0.60736  3.95262
1.999008 -0.60736  3.94868
1.999008 -0.60736  3.94474
1.999008 -0.60736  3.94080
1.999008 -0.60736  3.93687
1.999008 -0.60736  3.93293
1.999008 -0.60736  3.92899
1.999008 -0.60736  3.92505
1.999008 -0.60736  3.92111
1.999008 -0.60736  3.91718
1.999008 -0.60736  3.91324
1.999008 -0.60736  3.90930
1.999008 -0.60736  3.90536
1.999008 -0.60736  3.90143
1.999008 -0.60736  3.89749
1.999008 -0.60736  3.89355
1.999008 -0.60736  3.88961
1.999008 -0.60736  3.88567
1.999008 -0.60736  3.88174
1.999008 -0.60736  3.87780
1.999008 -0.60736  3.87386
1.999008 -0.60736  3.86992
1.999008 -0.60736  3.86599
1.999008 -0.60736  3.86205
1.999008 -0.60736  3.85811
1.999008 -0.60736  3.85417
1.999008 -0.60736  3.85023
1.999008 -0.60736  3.84630
1.999008 -0.60736  3.84236
1.999008 -0.60736  3.83842
1.999008 -0.60736  3.83448
1.999008 -0.60736  3.83055
1.999008 -0.60736  3.82661
1.999008 -0.60736  3.82267
1.999008 -0.60736  3.81873
1.999008 -0.60736  3.81479
1.999008 -0.60736  3.81086
1.999008 -0.60736  3.80692
1.999008 -0.60736  3.80298
1.999008 -0.60736  3.79904
1.999008 -0.60736  3.79511
1.999008 -0.60736  3.79117
1.999008 -0.60736  3.78723
1.999008 -0.60736  3.78329
1.999008 -0.60736  3.77936
1.999008 -0.60736  3.77542
1.999008 -0.60736  3.77148
1.999008 -0.60736  3.76754
1.999008 -0.60736  3.76360
1.999008 -0.60736  3.75967
1.999008 -0.60736  3.75573
1.999008 -0.60736  3.75179
1.999008 -0.60736  3.74785
1.999008 -0.60736  3.74392
1.999008 -0.60736  3.73998
1.999008 -0.60736  3.73604
1.999008 -0.60736  3.73210
1.999008 -0.60736  3.72816
1.999008 -0.60736  3.72423
1.999008 -0.60736  3.72029
1.999008 -0.60736  3.71635
1.999008 -0.60736  3.71241
1.999008 -0.60736  3.70848
1.999008 -0.60736  3.70454
1.999008 -0.60736  3.70060
1.999008 -0.60736  3.69666
1.999008 -0.60736  3.69272
1.999008 -0.60736  3.68879
1.999008 -0.60736  3.68485
1.999008 -0.60736  3.68091
1.999008 -0.60736  3.67697
1.999008 -0.60736  3.67304
1.999008 -0.60736  3.66910
1.999008 -0.60736  3.66516
1.999008 -0.60736  3.66122
1.999008 -0.60736  3.65728
1.999008 -0.60736  3.65335
1.999008 -0.60736  3.64941
1.999008 -0.60736  3.64547
1.999008 -0.60736  3.64153
1.999008 -0.60736  3.63760
1.999008 -0.60736  3.63366
1.999008 -0.60736  3.62972
1.999008 -0.60736  3.62578
1.999008 -0.60736  3.62184
1.999008 -0.60736  3.61791
1.999008 -0.60736  3.61397
1.999008 -0.60736  3.61003
1.999008 -0.60736  3.60609
1.999008 -0.60736  3.60216
1.999008 -0.60736  3.59822
1.999008 -0.60736  3.59428
1.999008 -0.60736  3.59034
1.999008 -0.60736  3.58640
1.999008 -0.60736  3.58247
1.999008 -0.60736  3.57853
1.999008 -0.60736  3.57459
1.999008 -0.60736  3.57065
1.999008 -0.60736  3.56672
1.999008 -0.60736  3.56278
1.999008 -0.60736  3.55884
1.999008 -0.60736  3.55490
1.999008 -0.60736  3.55096
1.999008 -0.60736  3.54703
1.999008 -0.60736  3.54309
1.999008 -0.60736  3.53915
1.999008 -0.60736  3.53521
1.999008 -0.60736  3.53128
1.999008 -0.60736  3.52734
1.999008 -0.60736  3.52340
1.999008 -0.60736  3.51946
1.999008 -0.60736  3.51552
1.999008 -0.60736  3.51159
1.999008 -0.60736  3.50765
1.999008 -0.60736  3.50371
1.999008 -0.60736  3.49977
1.999008 -0.60736  3.49584
1.999008 -0.60736  3.49190
1.999008 -0.60736  3.48796
1.999008 -0.60736  3.48402
1.999008 -0.60736  3.48009
1.999008 -0.60736  3.47615
1.999008 -0.60736  3.47221
1.999008 -0.60736  3.46827
1.999008 -0.60736  3.46433
1.999008 -0.60736  3.46040
1.999008 -0.60736  3.45646
1.999008 -0.60736  3.45252
1.999008 -0.60736  3.44858
1.999008 -0.60736  3.44465
1.999008 -0.60736  3.44071
1.999008 -0.60736  3.43677
1.999008 -0.60736  3.43283
1.999008 -0.60736  3.42889
1.999008 -0.60736  3.42496
1.999008 -0.60736  3.42102
1.999008 -0.60736  3.41708
1.999008 -0.60736  3.41314
1.998844 -0.60761  3.40921
1.998265 -0.60849  3.40531
1.997276 -0.61000  3.40147
1.995884 -0.61212  3.39774
1.994103 -0.61483  3.39415
1.991949 -0.61811  3.39073
1.989443 -0.62192  3.38751
1.986609 -0.62624  3.38452
1.983472 -0.63101  3.38180
1.980061 -0.63620  3.37936
1.976410 -0.64176  3.37723
1.972552 -0.64764  3.37544
1.968523 -0.65377  3.37400
1.964361 -0.66010  3.37292
1.960106 -0.66658  3.37223
1.955799 -0.67314  3.37192
1.951477 -0.67972  3.37191
1.947155 -0.68630  3.37192
1.942833 -0.69288  3.37192
1.938511 -0.69945  3.37193
1.934189 -0.70603  3.37193
1.929867 -0.71261  3.37194
1.925545 -0.71919  3.37195
1.921224 -0.72577  3.37195
1.916902 -0.73235  3.37196
1.912580 -0.73893  3.37196
1.908258 -0.74551  3.37197
1.903936 -0.75209  3.37198
1.899614 -0.75867  3.37198
