1.895300 -0.76523  4.15759
1.891027 -0.77174  4.15821
1.886839 -0.77811  4.15923
1.882775 -0.78430  4.16064
1.878876 -0.79024  4.16244
1.875181 -0.79586  4.16462
1.871727 -0.80112  4.16714
1.868549 -0.80596  4.16999
1.865680 -0.81032  4.17314
1.863149 -0.81418  4.17656
1.860983 -0.81747  4.18022
1.859205 -0.82018  4.18407
1.857834 -0.82227  4.18809
1.856883 -0.82371  4.19222
1.856364 -0.82450  4.19643
1.856260 -0.82466  4.20066
1.856260 -0.82466  4.20490
1.856260 -0.82466  4.20914
1.856260 -0.82466  4.21339
1.856260 -0.82466  4.21763
1.856260 -0.82466  4.22187
1.856260 -0.82466  4.22611
1.856260 -0.82466  4.23035
1.856260 -0.82466  4.23459
1.856260 -0.82466  4.23883
1.856260 -0.82466  4.24307
1.856260 -0.82466  4.24731
1.856260 -0.82466  4.25155
1.856260 -0.82466  4.25579
1.856260 -0.82466  4.26003
1.856260 -0.82466  4.26427
1.856260 -0.82466  4.26851
1.856260 -0.82466  4.27275
1.856260 -0.82466  4.27699
1.856260 -0.82466  4.28123
1.856260 -0.82466  4.28548
1.856260 -0.82466  4.28972
1.856260 -0.82466  4.29396
1.856260 -0.82466  4.29820
1.856260 -0.82466  4.30244
1.856260 -0.82466  4.30668
1.856260 -0.82466  4.31092
1.856260 -0.82466  4.31516
1.856260 -0.82466  4.31940
1.856260 -0.82466  4.32364
1.856260 -0.82466  4.32788
1.856260 -0.82466  4.33212
1.856260 -0.82466  4.33636
1.856260 -0.82466  4.34060
1.856260 -0.82466  4.34484
1.856260 -0.82466  4.34908
1.856260 -0.82466  4.35332
1.856260 -0.82466  4.35756
1.856260 -0.82466  4.36181
1.856260 -0.82466  4.36605
1.856260 -0.82466  4.37029
1.856260 -0.82466  4.37453
1.856260 -0.82466  4.37877
1.856260 -0.82466  4.38301
1.856260 -0.82466  4.38725
1.856260 -0.82466  4.39149
1.856260 -0.82466  4.39573
1.856260 -0.82466  4.39997
1.856260 -0.82466  4.40421
1.856260 -0.82466  4.40845
1.856260 -0.82466  4.41269
1.856260 -0.82466  4.41693
1.856260 -0.82466  4.42117
1.856260 -0.82466  4.42541
1.856260 -0.82466  4.42965
1.856260 -0.82466  4.43390
1.856260 -0.82466  4.43814
1.856260 -0.82466  4.44238
1.856260 -0.82466  4.44662
1.856260 -0.82466  4.45086
1.856260 -0.82466  4.45510
1.856260 -0.82466  4.45934
1.856260 -0.82466  4.46358
1.856260 -0.82466  4.46782
1.856260 -0.82466  4.47206
1.856260 -0.82466  4.47630
1.856260 -0.82466  4.48054
1.856260 -0.82466  4.48478
1.856260 -0.82466  4.48902
1.856260 -0.82466  4.49326
1.856260 -0.82466  4.49750
1.856260 -0.82466  4.50174
1.856260 -0.82466  4.50599
1.856260 -0.82466  4.51023
1.856260 -0.82466  4.51447
1.856260 -0.82466  4.51871
1.856260 -0.82466  4.52295
1.856260 -0.82466  4.52719
1.856260 -0.82466  4.53143
1.856260 -0.82466  4.53567
1.856260 -0.82466  4.53991
1.856260 -0.82466  4.54415
1.856260 -0.82466  4.54839
1.856260 -0.82466  4.55263
1.856260 -0.82466  4.55687
1.856260 -0.82466  4.56111
1.856260 -0.82466  4.56535
1.856260 -0.82466  4.56959
1.856260 -0.82466  4.57383
1.856260 -0.82466  4.57808
1.856260 -0.82466  4.58232
1.856260 -0.82466  4.58656
1.856260 -0.82466  4.59080
1.856260 -0.82466  4.59504
1.856260 -0.82466  4.59928
1.856260 -0.82466  4.60352
1.856260 -0.82466  4.60776
1.856260 -0.82466  4.61200
1.856260 -0.82466  4.61624
1.856260 -0.82466  4.62048
1.856260 -0.82466  4.62472
1.856260 -0.82466  4.62896
1.856260 -0.82466  4.63320
1.856260 -0.82466  4.63744
1.856260 -0.82466  4.64168
1.856260 -0.82466  4.64592
1.856260 -0.82466  4.65017
1.856260 -0.82466  4.65441
1.856260 -0.82466  4.65865
1.856260 -0.82466  4.66289
1.856260 -0.82466  4.66713
1.856260 -0.82466  4.67137
1.856260 -0.82466  4.67561
1.856260 -0.82466  4.67985
1.856260 -0.82466  4.68409
1.856260 -0.82466  4.68833
1.856260 -0.82466  4.69257
1.856260 -0.82466  4.69681
1.856260 -0.82466  4.70105
1.856260 -0.82466  4.70529
1.856260 -0.82466  4.70953
1.856260 -0.82466  4.71377
1.856260 -0.82466  4.71801
1.856260 -0.82466  4.72225
1.856260 -0.82466  4.72650
1.856260 -0.82466  4.73074
1.856260 -0.82466  4.73498
1.856260 -0.82466  4.73922
1.856260 -0.82466  4.74346
1.856260 -0.82466  4.74770
1.856260 -0.82466  4.75194
1.856260 -0.82466  4.75618
1.856260 -0.82466  4.76042
1.856260 -0.82466  4.76466
1.856260 -0.82466  4.76890
1.856260 -0.82466  4.77314
1.856260 -0.82466  4.77738
1.856260 -0.82466  4.78162
1.856260 -0.82466  4.78586
1.856260 -0.82466  4.79010
1.856260 -0.82466  4.79434
1.856260 -0.82466  4.79859
1.856260 -0.82466  4.80283
1.856260 -0.82466  4.80707
1.856260 -0.82466  4.81131
1.856260 -0.82466  4.81555
1.856260 -0.82466  4.81979
1.856260 -0.82466  4.82403
1.856260 -0.82466  4.82827
1.856260 -0.82466  4.83251
1.856456 -0.82436  4.83674
1.857087 -0.82340  4.84094
1.858148 -0.82179  4.84504
1.859626 -0.81954  4.84902
1.861506 -0.81668  4.85283
1.863769 -0.81323  4.85643
1.866389 -0.80924  4.85978
1.869341 -0.80475  4.86286
1.872593 -0.79980  4.86562
1.876113 -0.79444  4.86806
1.879865 -0.78873  4.87014
1.883810 -0.78272  4.87184
1.887910 -0.77648  4.87316
1.892124 -0.77007  4.87407
1.896411 -0.76354  4.87458
1.900730 -0.75697  4.87470
1.905052 -0.75039  4.87471
1.909374 -0.74381  4.87471
1.913696 -0.73723  4.87472
1.918017 -0.73065  4.87472
1.922339 -0.72407  4.87473
1.926661 -0.71749  4.87474
1.930983 -0.71091  4.87474
1.935305 -0.70434  4.87475
1.939627 -0.69776  4.87475
1.943949 -0.69118  4.87476
1.948271 -0.68460  4.87476
1.952592 -0.67802  4.87477
1.956914 -0.67144  4.87472
1.961211 -0.66490  4.87431
1.965446 -0.65845  4.87352
1.969577 -0.65216  4.87234
1.973565 -0.64609  4.87081
1.977374 -0.64030  4.86893
1.980966 -0.63483  4.86672
1.984309 -0.62974  4.86421
1.987370 -0.62508  4.86141
1.990123 -0.62089  4.85836
1.992540 -0.61721  4.85509
1.994599 -0.61407  4.85162
1.996281 -0.61151  4.84799
1.997570 -0.60955  4.84423
1.998454 -0.60821  4.84037
1.998925 -0.60749  4.83646
1.999008 -0.60736  4.83252
1.999008 -0.60736  4.82858
1.999008 -0.60736  4.82465
1.999008 -0.60736  4.82071
1.999008 -0.60736  4.81677
1.999008 -0.60736  4.81283
1.999008 -0.60736  4.80889
1.999008 -0.60736  4.80496
1.999008 -0.60736  4.80102
1.999008 -0.60736  4.79708
1.999008 -0.60736  4.79314
1.999008 -0.60736  4.78921
1.999008 -0.60736  4.78527
1.999008 -0.60736  4.78133
1.999008 -0.60736  4.77739
1.999008 -0.60736  4.77345
1.999008 -0.60736  4.76952
1.999008 -0.60736  4.76558
1.999008 -0.60736  4.76164
1.999008 -0.60736  4.75770
1.999008 -0.60736  4.75377
1.999008 -0.60736  4.74983
1.999008 -0.60736  4.74589
1.999008 -0.60736  4.74195
1.999008 -0.60736  4.73801
1.999008 -0.60736  4.73408
1.999008 -0.60736  4.73014
1.999008 -0.60736  4.72620
1.999008 -0.60736  4.72226
1.999008 -0.60736  4.71833
1.999008 -0.60736  4.71439
1.999008 -0.60736  4.71045
1.999008 -0.60736  4.70651
1.999008 -0.60736  4.70258
1.999008 -0.60736  4.69864
1.999008 -0.60736  4.69470
1.999008 -0.60736  4.69076
1.999008 -0.60736  4.68682
1.999008 -0.60736  4.68289
1.999008 -0.60736  4.67895
1.999008 -0.60736  4.67501
1.999008 -0.60736  4.67107
1.999008 -0.60736  4.66714
1.999008 -0.60736  4.66320
1.999008 -0.60736  4.65926
1.999008 -0.60736  4.65532
1.999008 -0.60736  4.65138
1.999008 -0.60736  4.64745
1.999008 -0.60736  4.64351
1.999008 -0.60736  4.63957
1.999008 -0.60736  4.63563
1.999008 -0.60736  4.63170
1.999008 -0.60736  4.62776
1.999008 -0.60736  4.62382
1.999008 -0.60736  4.61988
1.999008 -0.60736  4.61594
1.999008 -0.60736  4.61201
1.999008 -0.60736  4.60807
1.999008 -0.60736  4.60413
1.999008 -0.60736  4.60019
1.999008 -0.60736  4.59626
1.999008 -0.60736  4.59232
1.999008 -0.60736  4.58838
1.999008 -0.60736  4.58444
1.999008 -0.60736  4.58050
1.999008 -0.60736  4.57657
1.999008 -0.60736  4.57263
1.999008 -0.60736  4.56869
1.999008 -0.60736  4.56475
1.999008 -0.60736  4.56082
1.999008 -0.60736  4.55688
1.999008 -0.60736  4.55294
1.999008 -0.60736  4.54900
1.999008 -0.60736  4.54506
1.999008 -0.60736  4.54113
1.999008 -0.60736  4.53719
1.999008 -0.60736  4.53325
1.999008 -0.60736  4.52931
1.999008 -0.60736  4.52538
1.999008 -0.60736  4.52144
1.999008 -0.60736  4.51750
1.999008 -0.60736  4.51356
1.999008 -0.60736  4.50962
1.999008 -0.60736  4.50569
1.999008 -0.60736  4.50175
1.999008 -0.60736  4.49781
1.999008 -0.60736  4.49387
1.999008 -0.60736  4.48994
1.999008 -0.60736  4.48600
1.999008 -0.60736  4.48206
1.999008 -0.60736  4.47812
1.999008 -0.60736  4.47418
1.999008 -0.60736  4.47025
1.999008 -0.60736  4.46631
1.999008 -0.60736  4.46237
1.999008 -0.60736  4.45843
1.999008 -0.60736  4.45450
1.999008 -0.60736  4.45056
1.999008 -0.60736  4.44662
1.999008 -0.60736  4.44268
1.999008 -0.60736  4.43874
1.999008 -0.60736  4.43481
1.999008 -0.60736  4.43087
1.999008 -0.60736  4.42693
1.999008 -0.60736  4.42299
1.999008 -0.60736  4.41906
1.999008 -0.60736  4.41512
1.999008 -0.60736  4.41118
1.999008 -0.60736  4.40724
1.999008 -0.60736  4.40330
1.999008 -0.60736  4.39937
1.999008 -0.60736  4.39543
1.999008 -0.60736  4.39149
1.999008 -0.60736  4.38755
1.999008 -0.60736  4.38362
1.999008 -0.60736  4.37968
1.999008 -0.60736  4.37574
1.999008 -0.60736  4.37180
1.999008 -0.60736  4.36787
1.999008 -0.60736  4.36393
1.999008 -0.60736  4.35999
1.999008 -0.60736  4.35605
1.999008 -0.60736  4.35211
1.999008 -0.60736  4.34818
1.999008 -0.60736  4.34424
1.999008 -0.60736  4.34030
1.999008 -0.60736  4.33636
1.999008 -0.60736  4.33243
1.999008 -0.60736  4.32849
1.999008 -0.60736  4.32455
1.999008 -0.60736  4.32061
1.999008 -0.60736  4.31667
1.999008 -0.60736  4.31274
1.999008 -0.60736  4.30880
1.999008 -0.60736  4.30486
1.999008 -0.60736  4.30092
1.999008 -0.60736  4.29699
1.999008 -0.60736  4.29305
1.999008 -0.60736  4.28911
1.999008 -0.60736  4.28517
1.999008 -0.60736  4.28123
1.999008 -0.60736  4.27730
1.999008 -0.60736  4.27336
1.999008 -0.60736  4.26942
1.999008 -0.60736  4.26548
1.999008 -0.60736  4.26155
1.999008 -0.60736  4.25761
1.999008 -0.60736  4.25367
1.999008 -0.60736  4.24973
1.999008 -0.60736  4.24579
1.999008 -0.60736  4.24186
1.999008 -0.60736  4.23792
1.999008 -0.60736  4.23398
1.999008 -0.60736  4.23004
1.999008 -0.60736  4.22611
1.999008 -0.60736  4.22217
1.999008 -0.60736  4.21823
1.999008 -0.60736  4.21429
1.999008 -0.60736  4.21035
1.999008 -0.60736  4.20642
1.999008 -0.60736  4.20248
1.999008 -0.60736  4.19854
1.998844 -0.60761  4.19461
1.998265 -0.60849  4.19071
1.997276 -0.61000  4.18687
1.995884 -0.61212  4.18314
1.994103 -0.61483  4.17955
1.991949 -0.61811  4.17613
1.989443 -0.62192  4.17291
1.986609 -0.62624  4.16992
1.983471 -0.63101  4.16719
1.980061 -0.63620  4.16476
1.976410 -0.64176  4.16263
1.972552 -0.64764  4.16084
1.968523 -0.65377  4.15940
1.964361 -0.66010  4.15832
1.960106 -0.66658  4.15763
1.955799 -0.67314  4.15732
1.951477 -0.67972  4.15731
1.947155 -0.68630  4.15732
1.942833 -0.69288  4.15732
1.938511 -0.69945  4.15733
1.934189 -0.70603  4.15733
1.929867 -0.71261  4.15734
1.925546 -0.71919  4.15734
1.921224 -0.72577  4.15735
1.916902 -0.73235  4.15736
1.912580 -0.73893  4.15736
1.908258 -0.74551  4.15737
1.903936 -0.75209  4.15737
1.899614 -0.75867  4.15738
