1.895300 -0.76523  4.94299
1.891027 -0.77174  4.94360
1.886839 -0.77811  4.94462
1.882775 -0.78430  4.94604
1.878876 -0.79024  4.94784
1.875181 -0.79586  4.95001
1.871727 -0.80112  4.95254
1.868549 -0.80596  4.95539
1.865680 -0.81032  4.95854
1.863149 -0.81418  4.96196
1.860983 -0.81747  4.96561
1.859205 -0.82018  4.96947
1.857834 -0.82227  4.97348
1.856883 -0.82371  4.97762
1.856364 -0.82450  4.98182
1.856260 -0.82466  4.98606
1.856260 -0.82466  4.99030
1.856260 -0.82466  4.99454
1.856260 -0.82466  4.99878
1.856260 -0.82466  5.00302
1.856260 -0.82466  5.00726
1.856260 -0.82466  5.01151
1.856260 -0.82466  5.01575
1.856260 -0.82466  5.01999
1.856260 -0.82466  5.02423
1.856260 -0.82466  5.02847
1.856260 -0.82466  5.03271
1.856260 -0.82466  5.03695
1.856260 -0.82466  5.04119
1.856260 -0.82466  5.04543
1.856260 -0.82466  5.04967
1.856260 -0.82466  5.05391
1.856260 -0.82466  5.05815
1.856260 -0.82466  5.06239
1.856260 -0.82466  5.06663
1.856260 -0.82466  5.07087
1.856260 -0.82466  5.07511
1.856260 -0.82466  5.07935
1.856260 -0.82466  5.08359
1.856260 -0.82466  5.08784
1.856260 -0.82466  5.09208
1.856260 -0.82466  5.09632
1.856260 -0.82466  5.10056
1.856260 -0.82466  5.10480
1.856260 -0.82466  5.10904
1.856260 -0.82466  5.11328
1.856260 -0.82466  5.11752
1.856260 -0.82466  5.12176
1.856260 -0.82466  5.12600
1.856260 -0.82466  5.13024
1.856260 -0.82466  5.13448
1.856260 -0.82466  5.13872
1.856260 -0.82466  5.14296
1.856260 -0.82466  5.14720
1.856260 -0.82466  5.15144
1.856260 -0.82466  5.15568
1.856260 -0.82466  5.15993
1.856260 -0.82466  5.16417
1.856260 -0.82466  5.16841
1.856260 -0.82466  5.17265
1.856260 -0.82466  5.17689
1.856260 -0.82466  5.18113
1.856260 -0.82466  5.18537
1.856260 -0.82466  5.18961
1.856260 -0.82466  5.19385
1.856260 -0.82466  5.19809
1.856260 -0.82466  5.20233
1.856260 -0.82466  5.20657
1.856260 -0.82466  5.21081
1.856260 -0.82466  5.21505
1.856260 -0.82466  5.21929
1.856260 -0.82466  5.22353
1.856260 -0.82466  5.22777
1.856260 -0.82466  5.23202
1.856260 -0.82466  5.23626
1.856260 -0.82466  5.24050
1.856260 -0.82466  5.24474
1.856260 -0.82466  5.24898
1.856260 -0.82466  5.25322
1.856260 -0.82466  5.25746
1.856260 -0.82466  5.26170
1.856260 -0.82466  5.26594
1.856260 -0.82466  5.27018
1.856260 -0.82466  5.27442
1.856260 -0.82466  5.27866
1.856260 -0.82466  5.28290
1.856260 -0.82466  5.28714
1.856260 -0.82466  5.29138
1.856260 -0.82466  5.29562
1.856260 -0.82466  5.29986
1.856260 -0.82466  5.30411
1.856260 -0.82466  5.30835
1.856260 -0.82466  5.31259
1.856260 -0.82466  5.31683
1.856260 -0.82466  5.32107
1.856260 -0.82466  5.32531
1.856260 -0.82466  5.32955
1.856260 -0.82466  5.33379
1.856260 -0.82466  5.33803
1.856260 -0.82466  5.34227
1.856260 -0.82466  5.34651
1.856260 -0.82466  5.35075
1.856260 -0.82466  5.35499
1.856260 -0.82466  5.35923
1.856260 -0.82466  5.36347
1.856260 -0.82466  5.36771
1.856260 -0.82466  5.37195
1.856260 -0.82466  5.37620
1.856260 -0.82466  5.38044
1.856260 -0.82466  5.38468
1.856260 -0.82466  5.38892
1.856260 -0.82466  5.39316
1.856260 -0.82466  5.39740
1.856260 -0.82466  5.40164
1.856260 -0.82466  5.40588
1.856260 -0.82466  5.41012
1.856260 -0.82466  5.41436
1.856260 -0.82466  5.41860
1.856260 -0.82466  5.42284
1.856260 -0.82466  5.42708
1.856260 -0.82466  5.43132
1.856260 -0.82466  5.43556
1.856260 -0.82466  5.43980
1.856260 -0.82466  5.44404
1.856260 -0.82466  5.44828
1.856260 -0.82466  5.45253
1.856260 -0.82466  5.45677
1.856260 -0.82466  5.46101
1.856260 -0.82466  5.46525
1.856260 -0.82466  5.46949
1.856260 -0.82466  5.47373
1.856260 -0.82466  5.47797
1.856260 -0.82466  5.48221
1.856260 -0.82466  5.48645
1.856260 -0.82466  5.49069
1.856260 -0.82466  5.49493
1.856260 -0.82466  5.49917
1.856260 -0.82466  5.50341
1.856260 -0.82466  5.50765
1.856260 -0.82466  5.51189
1.856260 -0.82466  5.51613
1.856260 -0.82466  5.52037
1.856260 -0.82466  5.52462
1.856260 -0.82466  5.52886
1.856260 -0.82466  5.53310
1.856260 -0.82466  5.53734
1.856260 -0.82466  5.54158
1.856260 -0.82466  5.54582
1.856260 -0.82466  5.55006
1.856260 -0.82466  5.55430
1.856260 -0.82466  5.55854
1.856260 -0.82466  5.56278
1.856260 -0.82466  5.56702
1.856260 -0.82466  5.57126
1.856260 -0.82466  5.57550
1.856260 -0.82466  5.57974
1.856260 -0.82466  5.58398
1.856260 -0.82466  5.58822
1.856260 -0.82466  5.59246
1.856260 -0.82466  5.59671
1.856260 -0.82466  5.60095
1.856260 -0.82466  5.60519
1.856260 -0.82466  5.60943
1.856260 -0.82466  5.61367
1.856260 -0.82466  5.61791
1.856456 -0.82436  5.62214
1.857087 -0.82340  5.62633
1.858148 -0.82179  5.63044
1.859626 -0.81954  5.63442
1.861506 -0.81668  5.63823
1.863769 -0.81323  5.64182
1.866389 -0.80924  5.64518
1.869341 -0.80475  5.64825
1.872593 -0.79980  5.65102
1.876113 -0.79444  5.65346
1.879865 -0.78873  5.65553
1.883810 -0.78272  5.65724
1.887910 -0.77648  5.65855
1.892124 -0.77007  5.65947
1.896411 -0.76354  5.65998
1.900730 -0.75697  5.66010
1.905052 -0.75039  5.66011
1.909374 -0.74381  5.66011
1.913696 -0.73723  5.66012
1.918018 -0.73065  5.66012
1.922339 -0.72407  5.66013
1.926661 -0.71749  5.66013
1.930983 -0.71091  5.66014
1.935305 -0.70434  5.66015
1.939627 -0.69776  5.66015
1.943949 -0.69118  5.66016
1.948271 -0.68460  5.66016
1.952593 -0.67802  5.66017
1.956913 -0.67144  5.66011
1.961211 -0.66490  5.65971
1.965446 -0.65845  5.65891
1.969577 -0.65216  5.65774
1.973565 -0.64609  5.65621
1.977374 -0.64030  5.65433
1.980966 -0.63483  5.65212
1.984309 -0.62974  5.64961
1.987370 -0.62508  5.64681
1.990123 -0.62089  5.64376
1.992540 -0.61721  5.64049
1.994599 -0.61407  5.63702
1.996281 -0.61151  5.63338
1.997570 -0.60955  5.62962
1.998454 -0.60821  5.62577
1.998925 -0.60749  5.62186
1.999008 -0.60736  5.61792
1.999008 -0.60736  5.61398
1.999008 -0.60736  5.61004
1.999008 -0.60736  5.60611
1.999008 -0.60736  5.60217
1.999008 -0.60736  5.59823
1.999008 -0.60736  5.59429
1.999008 -0.60736  5.59036
1.999008 -0.60736  5.58642
1.999008 -0.60736  5.58248
1.999008 -0.60736  5.57854
1.999008 -0.60736  5.57460
1.999008 -0.60736  5.57067
1.999008 -0.60736  5.56673
1.999008 -0.60736  5.56279
1.999008 -0.60736  5.55885
1.999008 -0.60736  5.55492
1.999008 -0.60736  5.55098
1.999008 -0.60736  5.54704
1.999008 -0.60736  5.54310
1.999008 -0.60736  5.53916
1.999008 -0.60736  5.53523
1.999008 -0.60736  5.53129
1.999008 -0.60736  5.52735
1.999008 -0.60736  5.52341
1.999008 -0.60736  5.51948
1.999008 -0.60736  5.51554
1.999008 -0.60736  5.51160
1.999008 -0.60736  5.50766
1.999008 -0.60736  5.50372
1.999008 -0.60736  5.49979
1.999008 -0.60736  5.49585
1.999008 -0.60736  5.49191
1.999008 -0.60736  5.48797
1.999008 -0.60736  5.48404
1.999008 -0.60736  5.48010
1.999008 -0.60736  5.47616
1.999008 -0.60736  5.47222
1.999008 -0.60736  5.46828
1.999008 -0.60736  5.46435
1.999008 -0.60736  5.46041
1.999008 -0.60736  5.45647
1.999008 -0.60736  5.45253
1.999008 -0.60736  5.44860
1.999008 -0.60736  5.44466
1.999008 -0.60736  5.44072
1.999008 -0.60736  5.43678
1.999008 -0.60736  5.43284
1.999008 -0.60736  5.42891
1.999008 -0.60736  5.42497
1.999008 -0.60736  5.42103
1.999008 -0.60736  5.41709
1.999008 -0.60736  5.41316
1.999008 -0.60736  5.40922
1.999008 -0.60736  5.40528
1.999008 -0.60736  5.40134
1.999008 -0.60736  5.39740
1.999008 -0.60736  5.39347
1.999008 -0.60736  5.38953
1.999008 -0.60736  5.38559
1.999008 -0.60736  5.38165
1.999008 -0.60736  5.37772
1.999008 -0.60736  5.37378
1.999008 -0.60736  5.36984
1.999008 -0.60736  5.36590
1.999008 -0.60736  5.36196
1.999008 -0.60736  5.35803
1.999008 -0.60736  5.35409
1.999008 -0.60736  5.35015
1.999008 -0.60736  5.34621
1.999008 -0.60736  5.34228
1.999008 -0.60736  5.33834
1.999008 -0.60736  5.33440
1.999008 -0.60736  5.33046
1.999008 -0.60736  5.32652
1.999008 -0.60736  5.32259
1.999008 -0.60736  5.31865
1.999008 -0.60736  5.31471
1.999008 -0.60736  5.31077
1.999008 -0.60736  5.30684
1.999008 -0.60736  5.30290
1.999008 -0.60736  5.29896
1.999008 -0.60736  5.29502
1.999008 -0.60736  5.29108
1.999008 -0.60736  5.28715
1.999008 -0.60736  5.28321
1.999008 -0.60736  5.27927
1.999008 -0.60736  5.27533
1.999008 -0.60736  5.27140
1.999008 -0.60736  5.26746
1.999008 -0.60736  5.26352
1.999008 -0.60736  5.25958
1.999008 -0.60736  5.25565
1.999008 -0.60736  5.25171
1.999008 -0.60736  5.24777
1.999008 -0.60736  5.24383
1.999008 -0.60736  5.23989
1.999008 -0.60736  5.23596
1.999008 -0.60736  5.23202
1.999008 -0.60736  5.22808
1.999008 -0.60736  5.22414
1.999008 -0.60736  5.22021
1.999008 -0.60736  5.21627
1.999008 -0.60736  5.21233
1.999008 -0.60736  5.20839
1.999008 -0.60736  5.20445
1.999008 -0.60736  5.20052
1.999008 -0.60736  5.19658
1.999008 -0.60736  5.19264
1.999008 -0.60736  5.18870
1.999008 -0.60736  5.18477
1.999008 -0.60736  5.18083
1.999008 -0.60736  5.17689
1.999008 -0.60736  5.17295
1.999008 -0.60736  5.16901
1.999008 -0.60736  5.16508
1.999008 -0.60736  5.16114
1.999008 -0.60736  5.15720
1.999008 -0.60736  5.15326
1.999008 -0.60736  5.14933
1.999008 -0.60736  5.14539
1.999008 -0.60736  5.14145
1.999008 -0.60736  5.13751
1.999008 -0.60736  5.13357
1.999008 -0.60736  5.12964
1.999008 -0.60736  5.12570
1.999008 -0.60736  5.12176
1.999008 -0.60736  5.11782
1.999008 -0.60736  5.11389
1.999008 -0.60736  5.10995
1.999008 -0.60736  5.10601
1.999008 -0.60736  5.10207
1.999008 -0.60736  5.09813
1.999008 -0.60736  5.09420
1.999008 -0.60736  5.09026
1.999008 -0.60736  5.08632
1.999008 -0.60736  5.08238
1.999008 -0.60736  5.07845
1.999008 -0.60736  5.07451
1.999008 -0.60736  5.07057
1.999008 -0.60736  5.06663
1.999008 -0.60736  5.06269
1.999008 -0.60736  5.05876
1.999008 -0.60736  5.05482
1.999008 -0.60736  5.05088
1.999008 -0.60736  5.04694
1.999008 -0.60736  5.04301
1.999008 -0.60736  5.03907
1.999008 -0.60736  5.03513
1.999008 -0.60736  5.03119
1.999008 -0.60736  5.02725
1.999008 -0.60736  5.02332
1.999008 -0.60736  5.01938
1.999008 -0.60736  5.01544
1.999008 -0.60736  5.01150
1.999008 -0.60736  5.00757
1.999008 -0.60736  5.00363
1.999008 -0.60736  4.99969
1.999008 -0.60736  4.99575
1.999008 -0.60736  4.99181
1.999008 -0.60736  4.98788
1.999008 -0.60736  4.98394
1.998844 -0.60761  4.98001
1.998265 -0.60849  4.97610
1.997276 -0.61000  4.97227
1.995884 -0.61212  4.96854
1.994103 -0.61483  4.96495
1.991949 -0.61811  4.96152
1.989443 -0.62192  4.95830
1.986609 -0.62624  4.95532
1.983472 -0.63101  4.95259
1.980061 -0.63620  4.95015
1.976410 -0.64176  4.94803
1.972552 -0.64764  4.94624
1.968523 -0.65377  4.94479
1.964361 -0.66010  4.94372
1.960106 -0.66658  4.94303
1.955799 -0.67314  4.94272
1.951477 -0.67972  4.94271
1.947155 -0.68630  4.94271
1.942833 -0.69288  4.94272
1.938511 -0.69945  4.94272
1.934189 -0.70603  4.94273
1.929867 -0.71261  4.94274
1.925545 -0.71919  4.94274
1.921224 -0.72577  4.94275
1.916902 -0.73235  4.94275
1.912580 -0.73893  4.94276
1.908258 -0.74551  4.94277
1.903936 -0.75209  4.94277
1.899614 -0.75867  4.94278
