1.895300 -0.76523  5.72839
1.891027 -0.77174  5.72900
1.886839 -0.77811  5.73002
1.882775 -0.78430  5.73144
1.878876 -0.79024  5.73324
1.875181 -0.79586  5.73541
1.871727 -0.80112  5.73793
1.868549 -0.80596  5.74078
1.865680 -0.81032  5.74394
1.863149 -0.81418  5.74736
1.860983 -0.81747  5.75101
1.859205 -0.82018  5.75487
1.857834 -0.82227  5.75888
1.856883 -0.82371  5.76301
1.856364 -0.82450  5.76722
1.856260 -0.82466  5.77146
1.856260 -0.82466  5.77570
1.856260 -0.82466  5.77994
1.856260 -0.82466  5.78418
1.856260 -0.82466  5.78842
1.856260 -0.82466  5.79266
1.856260 -0.82466  5.79690
1.856260 -0.82466  5.80114
1.856260 -0.82466  5.80538
1.856260 -0.82466  5.80962
1.856260 -0.82466  5.81387
1.856260 -0.82466  5.81811
1.856260 -0.82466  5.82235
1.856260 -0.82466  5.82659
1.856260 -0.82466  5.83083
1.856260 -0.82466  5.83507
1.856260 -0.82466  5.83931
1.856260 -0.82466  5.84355
1.856260 -0.82466  5.84779
1.856260 -0.82466  5.85203
1.856260 -0.82466  5.85627
1.856260 -0.82466  5.86051
1.856260 -0.82466  5.86475
1.856260 -0.82466  5.86899
1.856260 -0.82466  5.87323
1.856260 -0.82466  5.87747
1.856260 -0.82466  5.88171
1.856260 -0.82466  5.88596
1.856260 -0.82466  5.89020
1.856260 -0.82466  5.89444
1.856260 -0.82466  5.89868
1.856260 -0.82466  5.90292
1.856260 -0.82466  5.90716
1.856260 -0.82466  5.91140
1.856260 -0.82466  5.91564
1.856260 -0.82466  5.91988
1.856260 -0.82466  5.92412
1.856260 -0.82466  5.92836
1.856260 -0.82466  5.93260
1.856260 -0.82466  5.93684
1.856260 -0.82466  5.94108
1.856260 -0.82466  5.94532
1.856260 -0.82466  5.94956
1.856260 -0.82466  5.95380
1.856260 -0.82466  5.95805
1.856260 -0.82466  5.96229
1.856260 -0.82466  5.96653
1.856260 -0.82466  5.97077
1.856260 -0.82466  5.97501
1.856260 -0.82466  5.97925
1.856260 -0.82466  5.98349
1.856260 -0.82466  5.98773
1.856260 -0.82466  5.99197
1.856260 -0.82466  5.99621
1.856260 -0.82466  6.00045
1.856260 -0.82466  6.00469
1.856260 -0.82466  6.00893
1.856260 -0.82466  6.01317
1.856260 -0.82466  6.01741
1.856260 -0.82466  6.02165
1.856260 -0.82466  6.02589
1.856260 -0.82466  6.03014
1.856260 -0.82466  6.03438
1.856260 -0.82466  6.03862
1.856260 -0.82466  6.04286
1.856260 -0.82466  6.04710
1.856260 -0.82466  6.05134
1.856260 -0.82466  6.05558
1.856260 -0.82466  6.05982
1.856260 -0.82466  6.06406
1.856260 -0.82466  6.06830
1.856260 -0.82466  6.07254
1.856260 -0.82466  6.07678
1.856260 -0.82466  6.08102
1.856260 -0.82466  6.08526
1.856260 -0.82466  6.08950
1.856260 -0.82466  6.09374
1.856260 -0.82466  6.09798
1.856260 -0.82466  6.10223
1.856260 -0.82466  6.10647
1.856260 -0.82466  6.11071
1.856260 -0.82466  6.11495
1.856260 -0.82466  6.11919
1.856260 -0.82466  6.12343
1.856260 -0.82466  6.12767
1.856260 -0.82466  6.13191
1.856260 -0.82466  6.13615
1.856260 -0.82466  6.14039
1.856260 -0.82466  6.14463
1.856260 -0.82466  6.14887
1.856260 -0.82466  6.15311
1.856260 -0.82466  6.15735
1.856260 -0.82466  6.16159
1.856260 -0.82466  6.16583
1.856260 -0.82466  6.17007
1.856260 -0.82466  6.17432
1.856260 -0.82466  6.17856
1.856260 -0.82466  6.18280
1.856260 -0.82466  6.18704
1.856260 -0.82466  6.19128
1.856260 -0.82466  6.19552
1.856260 -0.82466  6.19976
1.856260 -0.82466  6.20400
1.856260 -0.82466  6.20824
1.856260 -0.82466  6.21248
1.856260 -0.82466  6.21672
1.856260 -0.82466  6.22096
1.856260 -0.82466  6.22520
1.856260 -0.82466  6.22944
1.856260 -0.82466  6.23368
1.856260 -0.82466  6.23792
1.856260 -0.82466  6.24216
1.856260 -0.82466  6.24640
1.856260 -0.82466  6.25065
1.856260 -0.82466  6.25489
1.856260 -0.82466  6.25913
1.856260 -0.82466  6.26337
1.856260 -0.82466  6.26761
1.856260 -0.82466  6.27185
1.856260 -0.82466  6.27609
1.856260 -0.82466  6.28033
1.856260 -0.82466  6.28457
1.856260 -0.82466  6.28881
1.856260 -0.82466  6.29305
1.856260 -0.82466  6.29729
1.856260 -0.82466  6.30153
1.856260 -0.82466  6.30577
1.856260 -0.82466  6.31001
1.856260 -0.82466  6.31425
1.856260 -0.82466  6.31849
1.856260 -0.82466  6.32274
1.856260 -0.82466  6.32698
1.856260 -0.82466  6.33122
1.856260 -0.82466  6.33546
1.856260 -0.82466  6.33970
1.856260 -0.82466  6.34394
1.856260 -0.82466  6.34818
1.856260 -0.82466  6.35242
1.856260 -0.82466  6.35666
1.856260 -0.82466  6.36090
1.856260 -0.82466  6.36514
1.856260 -0.82466  6.36938
1.856260 -0.82466  6.37362
1.856260 -0.82466  6.37786
1.856260 -0.82466  6.38210
1.856260 -0.82466  6.38634
1.856260 -0.82466  6.39058
1.856260 -0.82466  6.39483
1.856260 -0.82466  6.39907
1.856260 -0.82466  6.40331
1.856456 -0.82436  6.40754
1.857087 -0.82340  6.41173
1.858148 -0.82179  6.41584
1.859626 -0.81954  6.41982
1.861506 -0.81668  6.42362
1.863769 -0.81323  6.42722
1.866389 -0.80924  6.43058
1.869341 -0.80475  6.43365
1.872593 -0.79980  6.43642
1.876113 -0.79444  6.43885
1.879865 -0.78873  6.44093
1.883810 -0.78272  6.44264
1.887910 -0.77648  6.44395
1.892124 -0.77007  6.44487
1.896411 -0.76354  6.44538
1.900730 -0.75697  6.44550
1.905052 -0.75039  6.44550
1.909374 -0.74381  6.44551
1.913696 -0.73723  6.44552
1.918017 -0.73065  6.44552
1.922339 -0.72407  6.44553
1.926661 -0.71749  6.44553
1.930983 -0.71091  6.44554
1.935305 -0.70434  6.44554
1.939627 -0.69776  6.44555
1.943949 -0.69118  6.44556
1.948271 -0.68460  6.44556
1.952592 -0.67802  6.44557
1.956914 -0.67144  6.44551
1.961211 -0.66490  6.44511
1.965446 -0.65845  6.44431
1.969577 -0.65216  6.44314
1.973565 -0.64609  6.44161
1.977374 -0.64030  6.43973
1.980966 -0.63483  6.43752
1.984309 -0.62974  6.43500
1.987370 -0.62508  6.43221
1.990123 -0.62089  6.42916
1.992540 -0.61721  6.42588
1.994599 -0.61407  6.42241
1.996281 -0.61151  6.41878
1.997570 -0.60955  6.41502
1.998454 -0.60821  6.41117
1.998925 -0.60749  6.40725
1.999008 -0.60736  6.40332
1.999008 -0.60736  6.39938
1.999008 -0.60736  6.39544
1.999008 -0.60736  6.39150
1.999008 -0.60736  6.38757
1.999008 -0.60736  6.38363
1.999008 -0.60736  6.37969
1.999008 -0.60736  6.37575
1.999008 -0.60736  6.37182
1.999008 -0.60736  6.36788
1.999008 -0.60736  6.36394
1.999008 -0.60736  6.36000
1.999008 -0.60736  6.35606
1.999008 -0.60736  6.35213
1.999008 -0.60736  6.34819
1.999008 -0.60736  6.34425
1.999008 -0.60736  6.34031
1.999008 -0.60736  6.33638
1.999008 -0.60736  6.33244
1.999008 -0.60736  6.32850
1.999008 -0.60736  6.32456
1.999008 -0.60736  6.32062
1.999008 -0.60736  6.31669
1.999008 -0.60736  6.31275
1.999008 -0.60736  6.30881
1.999008 -0.60736  6.30487
1.999008 -0.60736  6.30094
1.999008 -0.60736  6.29700
1.999008 -0.60736  6.29306
1.999008 -0.60736  6.28912
1.999008 -0.60736  6.28518
1.999008 -0.60736  6.28125
1.999008 -0.60736  6.27731
1.999008 -0.60736  6.27337
1.999008 -0.60736  6.26943
1.999008 -0.60736  6.26550
1.999008 -0.60736  6.26156
1.999008 -0.60736  6.25762
1.999008 -0.60736  6.25368
1.999008 -0.60736  6.24974
1.999008 -0.60736  6.24581
1.999008 -0.60736  6.24187
1.999008 -0.60736  6.23793
1.999008 -0.60736  6.23399
1.999008 -0.60736  6.23006
1.999008 -0.60736  6.22612
1.999008 -0.60736  6.22218
1.999008 -0.60736  6.21824
1.999008 -0.60736  6.21430
1.999008 -0.60736  6.21037
1.999008 -0.60736  6.20643
1.999008 -0.60736  6.20249
1.999008 -0.60736  6.19855
1.999008 -0.60736  6.19462
1.999008 -0.60736  6.19068
1.999008 -0.60736  6.18674
1.999008 -0.60736  6.18280
1.999008 -0.60736  6.17887
1.999008 -0.60736  6.17493
1.999008 -0.60736  6.17099
1.999008 -0.60736  6.16705
1.999008 -0.60736  6.16311
1.999008 -0.60736  6.15918
1.999008 -0.60736  6.15524
1.999008 -0.60736  6.15130
1.999008 -0.60736  6.14736
1.999008 -0.60736  6.14343
1.999008 -0.60736  6.13949
1.999008 -0.60736  6.13555
1.999008 -0.60736  6.13161
1.999008 -0.60736  6.12767
1.999008 -0.60736  6.12374
1.999008 -0.60736  6.11980
1.999008 -0.60736  6.11586
1.999008 -0.60736  6.11192
1.999008 -0.60736  6.10799
1.999008 -0.60736  6.10405
1.999008 -0.60736  6.10011
1.999008 -0.60736  6.09617
1.999008 -0.60736  6.09223
1.999008 -0.60736  6.08830
1.999008 -0.60736  6.08436
1.999008 -0.60736  6.08042
1.999008 -0.60736  6.07648
1.999008 -0.60736  6.07255
1.999008 -0.60736  6.06861
1.999008 -0.60736  6.06467
1.999008 -0.60736  6.06073
1.999008 -0.60736  6.05679
1.999008 -0.60736  6.05286
1.999008 -0.60736  6.04892
1.999008 -0.60736  6.04498
1.999008 -0.60736  6.04104
1.999008 -0.60736  6.03711
1.999008 -0.60736  6.03317
1.999008 -0.60736  6.02923
1.999008 -0.60736  6.02529
1.999008 -0.60736  6.02135
1.999008 -0.60736  6.01742
1.999008 -0.60736  6.01348
1.999008 -0.60736  6.00954
1.999008 -0.60736  6.00560
1.999008 -0.60736  6.00167
1.999008 -0.60736  5.99773
1.999008 -0.60736  5.99379
1.999008 -0.60736  5.98985
1.999008 -0.60736  5.98591
1.999008 -0.60736  5.98198
1.999008 -0.60736  5.97804
1.999008 -0.60736  5.97410
1.999008 -0.60736  5.97016
1.999008 -0.60736  5.96623
1.999008 -0.60736  5.96229
1.999008 -0.60736  5.95835
1.999008 -0.60736  5.95441
1.999008 -0.60736  5.95047
1.999008 -0.60736  5.94654
1.999008 -0.60736  5.94260
1.999008 -0.60736  5.93866
1.999008 -0.60736  5.93472
1.999008 -0.60736  5.93079
1.999008 -0.60736  5.92685
1.999008 -0.60736  5.92291
1.999008 -0.60736  5.91897
1.999008 -0.60736  5.91503
1.999008 -0.60736  5.91110
1.999008 -0.60736  5.90716
1.999008 -0.60736  5.90322
1.999008 -0.60736  5.89928
1.999008 -0.60736  5.89535
1.999008 -0.60736  5.89141
1.999008 -0.60736  5.88747
1.999008 -0.60736  5.88353
1.999008 -0.60736  5.87959
1.999008 -0.60736  5.87566
1.999008 -0.60736  5.87172
1.999008 -0.60736  5.86778
1.999008 -0.60736  5.86384
1.999008 -0.60736  5.85991
1.999008 -0.60736  5.85597
1.999008 -0.60736  5.85203
1.999008 -0.60736  5.84809
1.999008 -0.60736  5.84416
1.999008 -0.60736  5.84022
1.999008 -0.60736  5.83628
1.999008 -0.60736  5.83234
1.999008 -0.60736  5.82840
1.999008 -0.60736  5.82447
1.999008 -0.60736  5.82053
1.999008 -0.60736  5.81659
1.999008 -0.60736  5.81265
1.999008 -0.60736  5.80872
1.999008 -0.60736  5.80478
1.999008 -0.60736  5.80084
1.999008 -0.60736  5.79690
1.999008 -0.60736  5.79296
1.999008 -0.60736  5.78903
1.999008 -0.60736  5.78509
1.999008 -0.60736  5.78115
1.999008 -0.60736  5.77721
1.999008 -0.60736  5.77328
1.999008 -0.60736  5.76934
1.998844 -0.60761  5.76540
1.998265 -0.60849  5.76150
1.997276 -0.61000  5.75767
1.995884 -0.61212  5.75394
1.994103 -0.61483  5.75034
1.991949 -0.61811  5.74692
1.989443 -0.62192  5.74370
1.986609 -0.62624  5.74072
1.983471 -0.63101  5.73799
1.980061 -0.63620  5.73555
1.976410 -0.64176  5.73343
1.972552 -0.64764  5.73163
1.968523 -0.65377  5.73019
1.964361 -0.66010  5.72912
1.960106 -0.66658  5.72842
1.955799 -0.67314  5.72812
1.951477 -0.67972  5.72811
1.947155 -0.68630  5.72811
1.942833 -0.69288  5.72812
1.938511 -0.69945  5.72812
1.934189 -0.70603  5.72813
1.929867 -0.71261  5.72813
1.925546 -0.71919  5.72814
1.921224 -0.72577  5.72815
1.916902 -0.73235  5.72815
1.912580 -0.73893  5.72816
1.908258 -0.74551  5.72816
1.903936 -0.75209  5.72817
1.899614 -0.75867  5.72818
